ply
format ascii 1.0
element vertex 908
property float x
property float y
property float z
property uchar red
property uchar green
property uchar blue
end_header
3.285556 1.183407 10.810885 169 165 162
1.453274 -0.627140 13.730264 137 124 115
-0.508823 0.998937 15.068167 103 28 33
-0.848965 3.458223 14.439165 147 134 128
-0.831101 3.535133 14.503590 10 0 0
1.524124 3.554791 -3.720769 148 135 129
-0.831101 3.535133 14.503590 10 0 0
1.412069 3.467143 13.357854 22 18 17
0.983949 4.652154 14.825550 73 77 88
1.837257 10.018945 -11.245967 105 104 109
1.552371 2.396039 13.445641 166 175 180
1.246598 1.459549 13.100601 59 54 58
-2.025141 3.669455 15.985008 13 4 0
0.122772 5.511138 16.354959 37 16 13
1.837303 10.029093 -11.255548 115 110 107
-2.025141 3.669455 15.985008 13 4 0
1.453274 -0.627140 13.730264 137 124 115
3.851554 0.085983 9.707488 153 143 141
1.829050 4.202495 8.518458 97 93 94
1.523251 3.558836 -3.724030 172 162 161
1.246598 1.459549 13.100601 59 54 58
0.898467 4.783481 10.135083 247 248 253
0.912525 0.007471 12.912787 157 134 118
-0.402751 0.901851 15.162979 163 140 126
0.336700 4.837145 9.014124 255 255 251
1.921802 1.705428 13.079160 118 116 119
2.604322 4.122489 8.044897 13 11 12
-0.926343 5.843719 18.540384 129 110 96
3.229811 0.088816 10.576199 155 148 142
1.491780 1.024396 13.055468 124 112 100
1.837650 10.020068 -11.249464 221 214 208
0.886280 2.265002 13.558327 6 1 5
1.837112 10.017905 -11.244047 26 24 27
1.837111 10.019202 -11.245073 111 99 101
1.357644 1.735770 13.386503 2 2 4
1.178107 3.319919 13.482070 176 174 177
1.998955 4.031796 7.117808 89 87 88
-1.304728 6.083757 15.769039 4 0 0
1.057383 2.169092 13.093463 5 1 2
-0.977009 5.817625 14.875623 25 12 4
3.229811 0.088816 10.576199 155 148 142
-1.509604 3.854659 15.128671 5 1 0
1.283898 2.785046 13.347188 53 51 56
3.805327 0.205084 9.558248 16 14 15
0.361329 4.391381 14.741442 21 10 6
0.233522 5.047833 15.529223 133 114 99
-1.304728 6.083757 15.769039 4 0 0
3.058331 3.083239 7.684173 4 2 5
0.721049 4.649886 14.569875 153 153 155
-1.786396 5.471133 16.129476 122 112 111
0.065608 5.053742 9.813751 255 255 253
0.518972 4.484463 15.690344 136 123 107
2.491428 3.683250 7.552370 25 24 29
1.566237 1.981418 12.822814 16 11 8
1.808898 2.484957 13.410233 11 12 17
2.786824 3.957348 7.747128 146 144 145
0.898467 4.783481 10.135083 247 248 253
2.767810 3.604172 7.676330 165 166 168
1.342464 1.700591 13.654485 4 4 6
0.624251 5.172574 14.412364 125 116 111
0.663376 4.714107 9.378605 178 183 187
-2.024044 3.532154 15.624395 140 126 117
0.721049 4.649886 14.569875 153 153 155
1.665893 1.334463 12.641111 23 19 20
-0.977009 5.817625 14.875623 25 12 4
1.355110 4.160756 12.887295 188 191 196
1.837153 10.016543 -11.243223 21 22 27
2.391060 0.079235 12.205964 161 147 138
1.977412 2.266729 12.858730 93 93 95
1.300774 4.178455 12.963135 192 201 210
-1.223399 3.994508 16.383528 91 82 75
1.523382 4.308472 7.874620 154 158 161
1.544873 1.804273 12.857880 23 21 24
1.837209 10.021541 -11.247768 125 106 108
1.313266 2.298268 13.291802 4 2 5
1.419936 1.952482 12.884729 11 5 7
0.694485 4.856840 13.742267 128 118 117
1.068610 4.080016 13.312783 24 18 20
1.192634 4.751065 13.974982 173 181 194
2.566542 3.914200 7.688313 157 155 156
1.401364 4.591238 12.312471 174 176 188
1.837199 10.029228 -11.255210 151 144 136
1.947713 3.873931 13.761735 16 16 18
3.701601 0.301466 9.303253 135 125 126
1.839138 10.034668 -11.270694 107 102 98
-1.245736 5.816131 17.867880 107 94 85
-2.075398 5.968512 16.767328 64 60 59
0.613301 4.726252 9.094785 254 249 246
0.065608 5.053742 9.813751 255 255 253
1.837218 10.017934 -11.244851 22 21 26
0.363140 5.663284 15.167099 14 3 0
0.694485 4.856840 13.742267 128 118 117
1.523672 3.554841 -3.721126 76 80 92
-1.141647 5.933239 18.502741 116 99 89
1.839041 10.038047 -11.272745 165 166 168
1.837444 10.017779 -11.246255 54 53 59
1.360317 4.067891 12.710113 62 54 51
1.090427 4.397230 14.053429 172 197 217
1.489762 5.207059 12.065518 253 252 250
1.839011 10.032688 -11.268340 117 118 120
1.830172 5.130141 13.320043 136 132 131
1.478609 1.954846 12.863852 160 151 154
0.996599 4.720278 9.451816 242 241 239
1.838119 10.018439 -11.251396 41 40 45
1.523734 3.557873 -3.722984 154 140 131
0.749825 4.754185 10.002534 244 246 245
2.570527 3.518155 7.462699 178 184 184
1.837209 10.021737 -11.247931 180 168 170
1.115345 4.723843 10.327078 254 255 255
3.103172 3.249003 8.206782 161 165 164
1.837389 10.019283 -11.246972 19 15 16
-1.580932 6.447274 16.872107 78 71 65
2.497241 3.636927 7.349618 10 6 5
-1.242465 6.574611 18.732606 35 25 16
1.810550 4.028602 14.155149 64 64 72
1.913338 4.064082 14.202453 72 72 80
1.837217 10.022011 -11.248314 29 18 22
1.837466 10.017013 -11.245964 135 130 127
1.294234 2.905065 13.172646 4 2 5
1.612445 3.941720 7.891695 251 252 246
1.838276 10.023149 -11.256047 251 252 246
1.356493 3.744980 13.383132 8 4 5
1.222689 3.387794 7.532457 85 85 95
1.417577 2.086061 12.131821 13 15 14
1.037655 0.644300 12.915460 6 1 5
1.554584 5.078933 12.812293 29 23 27
-2.169563 5.804532 16.790717 7 5 6
1.955509 3.138528 8.475646 56 55 53
1.877088 3.834450 13.832315 1 2 6
1.912323 4.300124 8.569715 233 227 227
1.838223 10.019673 -11.252843 255 255 251
-2.136452 6.363801 17.266283 57 53 52
1.860638 1.719837 12.522724 20 18 21
1.544071 3.221970 7.124672 7 5 8
-1.931052 3.631691 15.669989 163 154 145
2.922335 2.726403 6.988330 15 11 10
1.489733 4.788238 10.982828 244 243 241
1.076733 2.866534 13.434360 6 1 5
0.822546 4.885486 10.228685 254 255 255
1.955509 3.138528 8.475646 56 55 53
1.961134 5.005089 11.724286 49 49 57
1.961134 5.005089 11.724286 49 49 57
1.532822 4.065094 8.453673 255 254 255
2.058558 4.897923 11.706799 147 148 152
1.837118 10.020820 -11.246630 2 0 3
1.945964 4.508028 13.929519 135 130 127
1.523548 3.114126 13.321160 17 16 21
1.530895 3.120394 13.774906 134 139 142
1.838921 10.038903 -11.272703 48 29 33
1.966028 3.572432 6.873129 20 18 21
1.532822 4.065094 8.453673 255 254 255
3.134331 1.094628 7.912761 104 95 98
2.549564 3.848121 7.856367 169 168 173
2.194245 3.024526 12.677143 1 0 5
0.053990 -1.010793 2.596666 154 137 127
0.163394 -0.432433 1.973451 68 7 23
0.053913 -1.010499 2.596675 129 124 120
2.171311 0.042628 12.560423 156 142 131
0.053990 -1.010793 2.596666 154 137 127
0.163360 -0.432119 1.973333 155 152 145
0.241084 -0.319048 1.831387 155 141 130
0.163383 -0.432406 1.973433 91 19 31
0.053855 -1.010470 2.596661 128 109 113
0.163357 -0.432142 1.973335 51 21 21
0.054306 -1.010597 2.596771 62 16 27
5.816650 0.993320 8.041297 21 17 16
0.054044 -1.009953 2.596733 179 177 178
0.297474 0.394650 1.643251 134 136 135
0.053803 -1.009652 2.596553 203 203 203
0.053984 -1.010530 2.596678 144 139 136
0.319877 -0.010494 1.714052 247 230 202
0.163343 -0.431953 1.973274 155 152 145
0.240971 -0.318583 1.831212 10 8 11
0.163282 -0.431796 1.973163 10 8 11
5.816650 0.993320 8.041297 21 17 16
0.174407 -0.307332 1.917561 7 1 1
0.163367 -0.432168 1.973354 162 152 143
0.054044 -1.009953 2.596733 179 177 178
0.054074 -1.007948 2.593234 84 76 73
0.163365 -0.431972 1.973305 94 82 70
0.053840 -1.010740 2.596679 164 148 135
0.054155 -1.009917 2.596622 123 119 118
0.446794 0.417632 1.759578 150 155 151
0.376222 -0.022765 1.770601 153 131 107
0.053984 -1.010530 2.596678 144 139 136
0.163616 -0.433087 1.973843 83 74 69
0.053770 -1.010561 2.596678 98 94 93
0.163338 -0.431924 1.973260 89 80 75
0.320210 0.004758 1.713880 255 252 221
0.163361 -0.431990 1.973304 147 138 121
0.054185 -1.008332 2.593156 160 140 115
0.054299 -1.010310 2.596784 123 120 115
0.174245 -0.306813 1.917312 63 54 45
0.054232 -1.010212 2.596754 9 8 6
0.362153 -0.027655 1.758777 144 116 94
0.443705 0.417161 1.757266 147 152 148
0.163364 -0.432142 1.973344 136 109 100
5.575327 0.950321 7.766403 21 19 20
0.054369 -1.010397 2.596826 143 130 121
0.053915 -1.010476 2.596681 131 129 132
0.054015 -1.009677 2.596485 5 3 6
0.163323 -0.431906 1.973238 145 142 137
3.861431 -3.526155 4.866120 113 106 98
0.163358 -0.432132 1.973334 176 136 137
0.053861 -1.010760 2.596674 3 1 2
0.463564 0.419735 1.772185 139 139 137
0.163626 -0.433100 1.973861 86 73 64
0.053811 -1.010459 2.596669 121 109 109
0.054232 -1.010212 2.596754 9 8 6
1.484692 -3.484129 6.719044 78 71 65
0.140849 -0.358404 1.933455 141 132 123
0.054245 -1.007098 2.592322 64 22 26
0.174397 -0.307254 1.917547 21 19 20
0.053827 -1.010097 2.596659 209 201 190
0.163353 -0.431980 1.973292 131 108 90
1.484692 -3.484129 6.719044 78 71 65
0.163367 -0.432138 1.973345 71 7 21
0.174266 -0.306883 1.917347 142 139 132
0.177185 0.121897 2.255363 133 102 100
0.053915 -1.010476 2.596681 131 129 132
0.054615 -1.010615 2.597031 136 132 123
0.163362 -0.432150 1.973343 62 20 22
0.163378 -0.432009 1.973329 139 129 117
0.054320 -1.007951 2.592480 154 142 128
0.054424 -1.010428 2.596868 76 66 56
0.054427 -1.010429 2.596874 148 138 128
1.446996 0.727559 6.074886 128 123 119
0.054369 -1.010397 2.596826 143 130 121
0.174249 -0.306841 1.917319 82 70 56
0.174292 -0.306920 1.917387 148 143 139
0.053794 -1.010198 2.596394 132 122 123
5.243045 -0.257123 8.896790 154 141 132
0.054343 -1.010386 2.596812 43 26 10
0.053775 -1.009609 2.596538 247 247 245
0.174270 -0.306880 1.917351 141 132 123
0.174278 -0.306903 1.917364 105 93 81
0.054296 -1.010933 2.596743 84 27 33
0.053955 -1.009851 2.596486 81 79 80
0.163375 -0.432008 1.973324 28 18 6
0.163362 -0.432134 1.973339 179 132 140
2.014573 2.310966 13.134322 95 95 97
0.163366 -0.431971 1.973305 81 69 55
0.776830 0.862902 5.771842 162 163 168
0.053781 -1.010411 2.596686 35 33 36
0.163264 -0.431642 1.972233 155 142 133
0.163349 -0.431960 1.973282 114 91 50
0.163319 -0.431867 1.973225 110 103 97
0.054366 -1.010409 2.596824 143 131 119
0.054308 -1.010578 2.596774 75 13 26
0.174292 -0.306920 1.917387 148 143 139
0.163359 -0.432144 1.973338 125 83 85
0.054031 -1.009898 2.596177 80 78 79
1.043305 0.903300 6.916136 140 126 123
0.054133 -1.009903 2.596612 128 126 127
0.174262 -0.306870 1.917339 106 97 90
0.053876 -1.009676 2.596485 40 40 42
0.665267 0.624368 4.949647 132 122 123
0.163353 -0.431980 1.973292 131 108 90
0.053815 -1.009590 2.596498 244 245 239
1.391038 0.159005 2.969545 98 26 37
0.054135 -1.009911 2.596614 113 111 112
0.054617 -1.010617 2.597040 23 16 8
0.699945 0.066431 1.940215 158 144 143
0.054177 -1.010052 2.596676 109 104 98
0.054045 -1.009414 2.596402 80 80 78
0.053804 -1.010336 2.596682 15 14 19
0.685873 0.086858 1.904697 161 151 149
0.053738 -1.009997 2.596402 192 187 191
0.054211 -1.006951 2.592016 78 36 37
0.054335 -1.010353 2.596805 144 139 133
0.053764 -1.010195 2.596679 191 187 186
0.054070 -1.010380 2.596811 103 102 100
0.053856 -1.010155 2.596674 50 46 47
0.054032 -1.009723 2.596498 154 154 156
0.163365 -0.432140 1.973344 56 14 16
0.163368 -0.432148 1.973348 150 120 118
0.935085 1.196569 6.901666 171 179 190
0.861640 1.495969 3.637161 42 34 32
0.163403 -0.432034 1.973366 84 75 60
0.140982 -0.358589 1.933667 32 19 10
0.174281 -0.306892 1.917369 80 71 62
0.163512 -0.432567 1.973610 96 60 60
0.053902 -1.008445 2.594329 119 100 93
0.053833 -1.009615 2.596487 213 211 212
0.054415 -1.010426 2.596855 83 73 63
0.673512 0.125047 1.901978 160 152 150
0.054374 -1.010411 2.596831 28 18 6
1.189307 4.275416 7.877903 245 246 238
1.386384 0.158174 2.964124 92 27 35
0.163383 -0.432016 1.973337 95 83 69
0.054238 -1.008666 2.592862 146 136 127
1.664918 2.749665 5.652248 14 15 17
0.174262 -0.306873 1.917339 139 130 121
0.163362 -0.432134 1.973339 179 132 140
0.163360 -0.432133 1.973336 61 16 19
0.746804 0.829424 5.554449 185 183 188
0.054357 -1.009565 2.595233 161 170 179
0.328506 -0.043074 1.668395 142 134 121
0.053877 -1.009476 2.595983 146 147 142
0.053899 -1.010670 2.596674 157 140 130
0.450092 0.025438 1.648684 135 117 117
0.053827 -1.009599 2.596494 38 34 35
0.354494 0.508875 2.518712 92 73 56
0.054449 -1.009271 2.595213 159 159 159
0.054636 -1.011530 2.596787 41 22 26
0.163361 -0.431990 1.973304 147 138 121
0.054449 -1.009271 2.595213 159 159 159
0.053946 -1.011487 2.596514 4 0 0
0.053791 -1.010256 2.596688 18 16 21
0.054146 -1.009925 2.596617 8 8 10
0.163368 -0.431939 1.973293 70 61 52
0.054052 -1.009896 2.596488 74 72 75
0.053935 -1.010704 2.596661 114 100 91
4.357391 -0.166616 7.644052 154 142 130
0.054060 -1.009724 2.596527 130 131 133
19.801874 2.477980 32.915669 164 155 148
0.053910 -1.009742 2.596560 44 36 33
0.053965 -1.010308 2.596445 95 95 103
0.054103 -1.009956 2.596571 175 177 176
0.054257 -1.010469 2.596958 112 99 91
0.053941 -1.009367 2.595569 89 85 84
1.173863 4.220414 7.793367 245 246 238
0.054023 -1.009713 2.596514 16 14 17
0.140852 -0.358423 1.933457 157 150 142
0.054075 -1.010605 2.596869 103 97 99
0.053911 -1.010181 2.596683 68 64 61
0.053958 -1.009948 2.595940 232 215 199
0.054334 -1.010021 2.595879 98 93 89
0.053911 -1.010181 2.596683 68 64 61
0.174402 -0.307084 1.917564 102 92 80
0.054235 -1.006699 2.592058 49 36 30
0.053948 -1.010446 2.596845 135 139 148
0.053875 -1.010032 2.596663 89 84 80
0.054196 -1.010122 2.596693 136 132 131
0.053852 -1.009911 2.596369 135 133 134
0.054139 -1.010182 2.596654 149 140 145
0.163394 -0.432433 1.973451 68 7 23
0.053841 -1.010431 2.596663 1 1 3
0.054507 -1.007062 2.593220 81 82 84
19.013563 16.807853 35.255478 61 51 42
0.054102 -1.010112 2.596505 18 18 16
0.053965 -1.009858 2.596501 74 72 75
0.054225 -1.010673 2.596800 168 159 150
0.163392 -0.432024 1.973350 78 69 62
0.163436 -0.432406 1.973497 14 14 16
0.054308 -1.010453 2.596492 26 19 26
0.163436 -0.432406 1.973497 14 14 16
0.054373 -1.010408 2.596838 146 136 126
7.313722 2.971903 12.977314 170 143 136
1.725715 -1.437637 2.904414 11 13 10
7.313722 2.971903 12.977314 170 143 136
8.086735 5.711033 13.094004 95 84 78
38.575999 14.405073 32.045577 34 13 10
10.088716 11.174335 21.396254 135 132 125
0.440145 0.107147 2.183745 6 0 0
9.613902 5.100528 10.862158 150 142 139
8.271647 7.956906 17.813255 148 146 147
0.131388 0.071057 1.664606 213 184 186
7.465743 3.160571 12.972203 67 11 22
0.131873 0.073598 1.664775 201 165 165
-0.100005 0.403208 1.155779 205 180 183
7.755220 7.186259 15.449098 150 149 147
7.594954 5.743788 13.516836 50 41 34
1.705305 -1.416296 2.930283 121 117 108
7.673160 5.903460 13.736532 138 133 127
7.303077 0.086538 9.808217 97 63 62
9.894240 1.524409 12.386042 133 118 111
0.128450 0.061736 1.662573 205 180 183
7.038378 1.681912 13.089391 166 159 153
-0.100290 0.404257 1.154538 115 89 74
0.522941 0.356223 2.504099 23 23 23
8.525101 5.558285 13.263594 117 104 96
4.127300 1.115052 4.106602 112 90 76
-0.099828 0.402668 1.156375 201 165 165
0.370428 0.096334 1.736787 136 108 87
8.139938 7.362592 15.550447 28 23 20
1.064253 -0.427226 2.377992 131 118 112
7.757732 7.393250 15.625615 112 109 102
-0.146089 0.584281 1.234608 41 22 8
13.272937 6.106147 9.225679 23 13 11
13.621152 3.988965 9.481764 27 12 5
8.564492 5.372481 12.687672 116 103 94
7.923046 6.052105 13.783141 108 95 89
0.397338 0.015778 1.738872 17 7 8
7.361979 2.872352 12.861515 40 5 12
19.784798 -2.165814 14.113104 64 46 34
0.210683 0.141523 1.903387 9 9 9
-0.146062 0.584212 1.234681 71 61 51
-0.100392 0.404909 1.153694 15 11 8
1.708328 -0.329767 2.643949 98 80 70
22.199177 6.068133 22.307888 57 49 47
33.294031 14.435755 29.667351 141 122 116
1.737921 -1.460990 2.967025 123 116 110
12.721080 16.433672 28.138220 113 111 112
30.719535 13.693076 27.194925 31 12 6
8.074309 5.472250 12.924542 38 23 16
8.036847 5.534932 13.283072 153 143 131
7.912223 1.862902 14.379913 147 140 134
1.104760 -0.439756 2.402420 17 6 12
1.725715 -1.437637 2.904414 11 13 10
16.347573 4.364335 19.715213 164 153 149
8.884640 5.997736 12.757223 138 128 118
1.064253 -0.427226 2.377992 131 118 112
34.088151 8.638353 31.664112 18 13 10
1.146868 -0.375785 2.432879 254 223 192
1.669889 -1.346525 2.872803 127 124 119
0.171185 0.059131 1.792485 139 130 125
-0.146085 0.584268 1.234624 110 87 73
8.672608 5.795160 13.054561 97 87 78
-0.100026 0.403941 1.154893 210 176 175
6.518306 9.484344 11.521116 119 116 109
7.301420 3.015100 13.024937 55 0 5
35.743345 8.744403 32.816357 78 53 49
-0.099630 0.402415 1.156619 163 152 146
7.335221 0.040309 9.745888 72 31 27
7.685176 6.640552 14.149001 60 52 49
-0.146673 0.645667 1.144855 89 67 53
0.160728 0.031930 1.646068 98 87 85
11.221961 -1.223166 19.690532 69 9 19
19.784798 -2.165814 14.113104 64 46 34
26.369982 11.629398 22.684772 15 15 15
8.295247 5.697885 12.628046 77 67 57
29.937599 13.445693 25.340345 72 56 56
23.051920 6.114863 22.894638 48 42 42
6.937254 1.703721 12.939077 164 155 146
27.753921 6.599613 46.493944 106 94 94
8.584079 10.925672 18.110154 124 121 114
23.381104 10.922239 20.593856 37 17 10
44.584628 18.649511 32.914173 50 31 27
-0.146067 0.584224 1.234660 55 50 46
-0.146677 0.645677 1.144890 114 94 83
0.147047 0.079171 1.682621 212 182 182
12.117151 -1.471307 15.770144 160 148 136
29.688886 12.786754 26.195132 122 89 80
35.739637 42.557748 76.658476 156 156 154
41.040299 17.189471 32.195568 19 19 21
37.144981 15.404938 28.067422 50 39 37
36.231891 15.224142 27.885147 96 84 84
28.148909 12.064544 27.645408 126 99 88
29.276510 12.551000 24.948364 75 57 55
8.584079 10.925672 18.110154 124 121 114
43.220070 15.659589 34.551442 136 96 88
5.750850 1.839995 6.656738 18 16 17
0.175329 0.084819 1.729142 172 154 144
28.435284 12.419729 23.348200 15 6 7
29.661985 11.324778 24.465893 36 20 21
9.163757 6.044803 14.033152 154 144 134
28.180045 7.400017 27.149732 53 48 44
132.634393 39.995042 109.606592 97 81 68
0.415160 0.338152 2.426140 93 104 108
28.180045 7.400017 27.149732 53 48 44
42.164056 17.454126 30.883454 148 124 114
34.747387 14.953645 31.216922 31 17 17
34.747387 14.953645 31.216922 31 17 17
-0.099787 0.402692 1.156025 117 114 107
7.533773 2.814438 13.064818 67 42 38
29.276510 12.551000 24.948364 75 57 55
29.350039 7.752648 27.274087 123 95 92
9.419937 13.830435 16.101725 117 114 107
5.471175 0.843885 6.724201 21 13 11
7.510942 -1.651778 17.836015 16 12 13
36.054770 15.715864 31.633904 154 119 113
8.238300 3.057786 7.199307 106 82 70
0.190757 0.109750 1.799795 19 17 18
46.406191 19.493600 41.028847 35 15 14
7.792282 7.080025 15.446285 80 79 77
10.921916 2.565218 9.487785 146 126 115
9.189829 -1.105901 7.150466 10 4 4
35.804484 13.470324 30.407832 19 14 18
-0.099751 0.402895 1.156021 170 143 136
0.357983 -0.368511 2.195450 13 13 13
11.874184 -1.476669 8.180529 80 66 55
0.358056 -0.368416 2.195611 255 237 202
0.359003 -0.369677 2.197006 118 98 89
11.825583 0.156265 5.681129 109 101 99
0.358088 -0.368439 2.195623 242 185 142
0.357961 -0.368135 2.195698 120 116 113
0.358334 -0.368627 2.195773 111 89 78
9.766340 4.520843 7.960248 109 85 73
0.358267 -0.368561 2.196197 68 67 63
11.180761 1.166698 5.226694 120 97 83
0.357965 -0.368279 2.195457 94 69 62
0.358216 -0.368460 2.195748 55 36 22
0.358159 -0.368516 2.195622 255 244 185
11.617202 -1.029968 8.785042 113 86 67
0.358381 -0.368620 2.195838 22 11 17
11.720018 0.424421 5.543443 117 105 105
0.358225 -0.368303 2.195857 103 87 88
0.358189 -0.368472 2.195705 53 30 16
11.546099 0.810957 5.415162 112 82 72
0.358108 -0.368203 2.195774 22 13 14
11.210779 1.168487 5.310367 25 13 15
11.751386 0.437787 5.814003 95 48 56
0.358213 -0.368488 2.195719 16 11 5
11.739246 0.395291 5.514938 27 13 12
8.826005 3.574778 5.128127 91 78 70
11.952236 0.095593 5.797477 28 21 28
0.358130 -0.368147 2.195810 19 14 10
11.337814 -0.353981 8.397225 55 36 22
11.720018 0.424421 5.543443 117 105 105
0.358561 -0.368688 2.196068 16 8 6
0.358428 -0.368671 2.195865 49 31 19
7.532507 -6.526243 7.324429 117 112 106
11.567457 0.475343 5.795775 21 7 6
12.582963 -1.050080 6.895978 130 110 103
11.469452 0.616825 5.557383 26 12 9
0.358288 -0.368554 2.195762 94 75 60
0.358262 -0.368426 2.195833 121 102 87
11.966333 0.036807 5.572831 168 154 154
0.358335 -0.368627 2.195763 64 44 37
11.148778 1.264447 5.566008 63 41 27
0.358295 -0.368584 2.195750 183 134 104
11.757072 0.400668 5.965378 69 41 27
11.854800 -1.342473 9.171928 44 33 29
11.957388 -0.913980 5.133264 139 119 112
0.357977 -0.367988 2.195729 139 131 120
0.358401 -0.368672 2.195815 134 114 107
0.358190 -0.367985 2.195830 42 34 23
11.741895 0.431299 5.659931 137 121 122
0.358006 -0.367988 2.195747 57 44 35
12.144614 -1.000791 5.152014 16 2 0
11.863664 -0.284394 8.600019 51 31 20
10.643853 2.157178 4.540938 14 3 0
10.862172 1.353297 6.308868 35 25 16
0.358071 -0.368462 2.195586 174 139 119
9.331609 3.880752 6.979990 104 80 70
11.392938 0.849257 5.628344 58 28 17
11.751689 0.125434 5.558410 23 17 19
12.366283 -1.017302 7.240467 94 75 60
0.357983 -0.368390 2.195580 22 14 11
8.829926 4.229221 6.929425 90 80 70
0.357979 -0.368501 2.195455 123 116 110
11.361342 0.755177 5.382898 64 39 34
0.358400 -0.368643 2.195846 168 154 154
6.744299 3.788334 8.061668 143 134 127
11.676955 0.306632 5.464627 127 112 105
12.429200 -1.075706 7.231429 20 11 4
0.358211 -0.368462 2.195731 113 81 58
11.098369 1.078384 5.175136 43 23 12
0.358200 -0.368308 2.195714 116 94 73
0.357017 -0.366514 2.193949 168 155 146
11.404175 0.795232 5.610033 118 85 66
0.357984 -0.367999 2.195733 141 134 126
0.358179 -0.368469 2.195685 122 98 88
11.273172 0.418487 5.551143 148 128 130
11.461040 0.347710 5.346115 62 41 24
0.358200 -0.368308 2.195714 116 94 73
0.358167 -0.368246 2.195825 172 143 139
14.564827 -5.090789 5.772898 97 83 72
11.449403 1.396706 5.868356 48 28 19
7.116192 4.001376 8.409456 143 134 127
11.871633 0.260983 5.554708 21 9 9
12.020690 -0.832544 6.423411 126 100 87
11.546338 0.313144 5.550108 24 13 11
7.541925 -6.512578 7.382563 114 110 101
0.358264 -0.368426 2.195828 117 95 81
0.358477 -0.369092 2.196474 103 80 66
0.357979 -0.367987 2.195730 109 102 92
0.358024 -0.368010 2.195757 65 53 41
11.361953 0.873233 5.528990 76 46 35
11.772210 0.563988 5.840976 31 21 19
0.358422 -0.368671 2.195855 48 30 20
0.357984 -0.367999 2.195733 141 134 126
12.206085 -0.749845 13.177503 84 61 45
0.358403 -0.368633 2.195860 138 124 124
11.666656 0.564549 5.542186 31 20 18
11.080152 1.243148 5.505657 112 90 79
0.358117 -0.368279 2.195769 139 119 118
0.357974 -0.368392 2.195577 84 71 63
0.358183 -0.368301 2.195818 123 103 96
0.358403 -0.368624 2.195872 50 30 23
10.908848 1.398768 6.301559 75 64 58
13.677623 -2.048617 10.954325 110 88 75
7.624923 -6.603862 7.388867 112 108 99
0.358116 -0.368139 2.195798 127 117 107
11.708821 0.404096 5.852618 27 12 7
10.129699 3.010955 6.177811 26 11 6
0.357970 -0.367988 2.195724 115 101 92
119.094349 -43.961794 68.304414 163 121 96
9.462546 4.284435 7.392808 10 8 9
0.359293 -0.370393 2.197953 81 68 62
0.357991 -0.367996 2.195736 89 82 72
0.357981 -0.367984 2.195733 88 79 70
11.264197 1.274041 5.527664 20 9 7
11.458533 0.586607 5.740512 25 14 12
11.273172 0.418487 5.551143 148 128 130
11.091399 0.442212 5.391929 11 0 1
13.677623 -2.048617 10.954325 110 88 75
0.358162 -0.368264 2.195808 22 12 10
0.358203 -0.368306 2.195834 21 19 24
0.358137 -0.368231 2.195806 116 85 67
0.358031 -0.368412 2.195572 98 72 75
0.358072 -0.368347 2.195694 96 70 55
0.357986 -0.367988 2.195735 127 117 107
0.358297 -0.368554 2.195777 105 79 64
10.156253 0.324285 9.801378 63 40 34
11.264197 1.274041 5.527664 20 9 7
0.357728 0.071535 1.934773 130 116 113
11.938238 -1.831263 9.817027 120 94 81
12.382075 -1.786145 9.093005 53 30 16
0.358197 -0.368311 2.195830 118 98 91
0.358163 -0.368236 2.195824 118 93 88
11.574587 1.111189 5.602339 63 36 27
0.358162 -0.368529 2.195607 99 84 81
11.458533 0.586607 5.740512 25 14 12
0.358163 -0.368236 2.195824 118 93 88
0.358186 -0.368292 2.195824 135 110 105
0.358192 -0.368305 2.195826 26 12 9
12.498440 -0.851466 6.980451 26 16 7
0.358097 -0.368125 2.195413 58 34 24
11.258080 1.226326 5.430411 119 90 74
11.408671 0.661665 5.305466 41 21 14
11.334666 1.311749 5.223341 36 17 10
11.000062 0.707100 5.199712 127 100 91
0.358031 -0.368413 2.195567 31 17 17
13.940748 -4.538921 5.387021 90 71 64
0.357986 -0.367993 2.195736 78 68 58
0.359171 -0.370528 2.197903 173 165 163
0.358205 -0.368357 2.195813 159 135 123
0.358400 -0.368615 2.195873 69 45 35
12.421270 -0.863588 5.392741 132 107 102
5.665575 -0.249694 7.023959 89 66 50
0.358140 -0.368505 2.195603 56 35 30
0.358425 -0.368652 2.195973 24 19 15
0.697750 0.160596 2.218686 17 5 5
0.358192 -0.368437 2.195768 139 108 90
0.358164 -0.368280 2.195808 104 86 86
0.358405 -0.368631 2.195865 75 64 62
0.358025 -0.368409 2.195563 32 23 14
0.358478 -0.368723 2.196308 136 133 126
0.607320 -0.256806 2.130244 125 111 98
16.448983 -2.218919 6.516303 107 83 73
0.358276 -0.368337 2.195756 30 17 11
0.357802 -0.367528 2.194860 38 24 21
11.780843 0.628095 5.541416 84 71 63
0.358136 -0.368299 2.195976 65 62 57
0.358455 -0.368503 2.195836 163 147 158
11.355555 0.871451 5.317161 115 85 75
0.358137 -0.368231 2.195806 116 85 67
0.358155 -0.368403 2.195731 116 80 54
0.358110 -0.368396 2.195650 132 110 99
11.016596 0.761785 5.371754 76 48 36
0.357989 -0.368369 2.195551 102 91 89
10.852803 -1.679540 9.098915 123 101 90
0.369878 0.123708 1.944552 30 19 15
0.358354 -0.368599 2.196113 137 129 118
16.248493 -1.949985 3.686018 123 110 104
14.667774 -1.524638 4.990994 121 99 88
-0.963179 1.736722 0.376981 117 91 74
-0.963179 1.736722 0.376981 117 91 74
15.616863 -1.789150 2.988900 62 53 46
-0.963695 1.736602 0.377567 137 127 138
17.247632 -1.959342 4.076870 11 5 5
-0.963258 1.736076 0.377802 10 5 0
-0.963878 1.737645 0.376759 39 25 25
17.635851 -1.942311 3.639453 52 45 37
10.908176 0.202501 5.440975 22 14 12
10.590254 0.288890 5.488272 19 14 11
12.026288 3.742323 3.635397 149 139 150
18.424520 -6.196106 7.057580 86 69 59
10.095145 2.010674 5.936996 33 23 14
-0.964550 1.738740 0.376250 155 133 122
-0.963094 1.736558 0.377076 131 109 95
-0.964183 1.737856 0.376814 155 137 133
10.930432 0.546861 5.249846 27 14 8
-0.963971 1.737803 0.376680 25 9 12
14.762636 -1.856717 5.397456 99 75 65
19.415590 -6.645113 5.879806 45 31 22
15.166229 -1.407769 4.990504 167 146 141
-0.964035 1.738482 0.375886 119 96 80
-0.964928 1.740415 0.374490 152 142 133
-0.963641 1.736538 0.377633 149 139 150
11.275108 2.860202 4.904362 48 34 25
10.949920 0.205521 5.386465 24 14 15
-0.964235 1.737906 0.376808 172 139 132
-0.964148 1.737763 0.376872 138 105 88
-0.964358 1.738176 0.376647 164 130 105
-0.962330 1.735034 0.378044 4 0 0
18.424520 -6.196106 7.057580 86 69 59
-0.964278 1.739116 0.375278 255 230 163
10.599849 0.396374 5.510570 130 110 101
17.434976 -1.892838 3.856644 14 10 11
-0.964278 1.739116 0.375278 255 230 163
21.420167 -6.877132 4.652297 109 98 92
-0.964022 1.737195 0.377293 114 99 94
-0.963755 1.738033 0.375848 117 82 52
-0.962446 1.735565 0.377441 16 4 4
-0.964756 1.738890 0.376272 182 156 155
21.278417 -6.745772 4.714677 21 12 7
-0.964928 1.740415 0.374490 152 142 133
17.505627 -5.833367 6.336212 80 63 55
14.564262 -1.359818 5.195186 93 71 60
-0.964795 1.738725 0.376474 54 44 35
-0.962441 1.735593 0.377395 127 100 93
13.174079 1.118733 4.138723 104 13 28
-0.963085 1.736658 0.376796 176 154 141
-0.963349 1.736226 0.377728 11 7 8
-0.963916 1.738289 0.375969 26 19 13
13.840138 1.055629 4.119094 155 117 106
5.682212 -4.938842 5.925888 111 104 98
-0.964733 1.738823 0.376328 92 68 64
10.837141 0.685742 5.444226 39 15 11
15.135571 0.134050 4.202306 55 39 26
10.949920 0.205521 5.386465 24 14 15
-0.963106 1.736652 0.376922 121 103 91
13.416988 1.875611 4.791210 113 85 71
-0.964685 1.738900 0.376143 98 79 73
11.044621 0.815618 5.192467 66 33 24
13.521776 0.493853 4.355486 61 42 35
-0.964099 1.737788 0.376814 59 41 31
-0.963262 1.737203 0.376291 111 91 82
-0.963853 1.737503 0.376886 121 93 82
-0.962449 1.735575 0.377430 18 13 10
12.190546 -0.968454 4.683017 154 133 128
18.807922 -7.237660 3.975951 93 83 74
14.654070 0.292901 4.475465 149 114 95
11.943080 0.675186 4.351954 133 119 118
-0.963233 1.736048 0.377808 5 0 0
-0.964360 1.738012 0.376791 52 35 27
-0.964235 1.737906 0.376808 172 139 132
-0.964852 1.739054 0.376207 21 14 8
13.840138 1.055629 4.119094 155 117 106
-0.963370 1.736789 0.377153 11 7 4
10.485029 0.385446 5.393545 99 53 63
-0.963934 1.737717 0.376736 22 11 7
-0.962568 1.735811 0.377258 108 90 88
-0.964257 1.738326 0.376484 76 59 51
8.903355 2.386231 9.124420 157 134 126
13.077682 0.960719 4.511347 128 104 94
-0.963853 1.737503 0.376886 121 93 82
-0.964016 1.737522 0.377011 37 22 17
10.908176 0.202501 5.440975 22 14 12
-0.964290 1.738069 0.376691 62 45 37
-0.963066 1.736641 0.376788 86 64 51
-0.962561 1.735327 0.379035 139 121 121
-0.962478 1.735627 0.377407 122 94 83
-0.964290 1.738069 0.376691 62 45 37
-0.961586 1.734089 0.380557 92 25 34
-0.960265 1.731882 0.380433 43 33 23
-0.964530 1.738742 0.376225 105 81 71
12.006697 1.291458 4.674742 14 13 9
-0.963945 1.737697 0.376767 46 28 14
-0.963844 1.736756 0.377564 21 15 19
-0.964102 1.738321 0.376221 72 54 44
-0.964891 1.740362 0.374499 37 22 17
-0.966252 1.742857 0.372843 99 92 86
-0.962378 1.735328 0.377671 49 32 25
-0.963406 1.737401 0.376237 30 15 12
-0.962585 1.735843 0.377238 100 81 74
-0.962543 1.735742 0.377329 92 74 70
11.488869 0.928678 4.387655 46 28 24
-0.963609 1.737837 0.375951 35 20 17
-0.963849 1.737526 0.376847 110 81 73
-0.962568 1.735811 0.377258 108 90 88
-0.962433 1.735868 0.377290 116 102 99
-0.965381 1.740218 0.375504 41 30 24
-0.962824 1.735724 0.377810 101 79 68
1.620450 -0.834358 3.031718 103 85 73
1.620888 -0.834921 3.031851 30 18 20
1.621090 -0.835382 3.031870 255 204 157
1.621003 -0.835613 3.031839 10 8 11
1.619372 -0.833216 3.031126 111 91 84
1.621017 -0.835383 3.031848 24 0 0
1.621024 -0.835332 3.031866 255 242 203
1.621003 -0.835613 3.031839 10 8 11
1.620934 -0.834952 3.031866 148 129 122
1.620269 -0.834374 3.031686 36 21 18
1.621122 -0.835415 3.031882 180 139 117
1.621174 -0.835715 3.031894 74 67 61
1.621325 -0.835176 3.031992 33 28 24
1.621120 -0.835420 3.031878 255 227 186
1.621026 -0.835547 3.031848 143 136 130
2.815805 -1.064107 3.552653 223 188 156
1.621036 -0.835407 3.031854 143 134 125
1.620938 -0.834933 3.031868 141 122 116
2.724297 -0.992687 3.480846 255 214 179
1.620264 -0.834342 3.031683 165 153 153
1.620421 -0.834900 3.031745 105 92 84
1.621045 -0.835414 3.031856 29 12 18
1.621003 -0.835602 3.031839 18 9 12
1.620938 -0.834933 3.031868 141 122 116
1.620269 -0.834374 3.031686 36 21 18
1.620457 -0.834498 3.031729 140 109 89
1.621299 -0.835622 3.031940 146 128 114
1.621051 -0.835423 3.031858 140 130 121
1.620900 -0.834943 3.031855 136 113 105
1.618930 -0.832468 3.030761 63 51 39
1.620674 -0.834871 3.031794 186 165 164
1.621003 -0.835602 3.031839 18 9 12
1.618930 -0.832468 3.030761 63 51 39
1.620894 -0.834740 3.031847 7 5 8
1.620941 -0.834952 3.031869 146 129 122
1.620247 -0.834384 3.031684 165 147 143
1.621051 -0.835423 3.031858 140 130 121
1.621036 -0.835407 3.031854 143 134 125
10.988189 2.760701 6.268287 102 93 86
1.620674 -0.834871 3.031794 186 165 164
1.619726 -0.833865 3.030873 83 73 64
1.621405 -0.835204 3.032015 120 111 102
1.621409 -0.835224 3.032017 114 100 89
1.620109 -0.833882 3.031612 134 119 122
1768.628021 83.513565 266.071493 61 34 23
1.620314 -0.834552 3.031706 12 7 4
1.620692 -0.834722 3.031863 45 27 27
1.620655 -0.834874 3.031791 82 60 47
1.617996 -0.832508 3.029981 100 71 65
1.620159 -0.834380 3.031676 53 35 25
1.620115 -0.834358 3.031671 30 13 6
1.620890 -0.834886 3.031851 20 11 12
1.621113 -0.834868 3.031930 8 6 7
1.620290 -0.834321 3.031684 26 10 11
1.620465 -0.834931 3.031753 43 26 16
1.620990 -0.835592 3.031836 124 119 113
1.620384 -0.834591 3.031720 163 138 131
1.619405 -0.833631 3.030671 167 148 142
1.620470 -0.834563 3.031469 149 125 115
1.620938 -0.834966 3.031867 135 118 111
1.619961 -0.834266 3.031660 33 19 10
1.618360 -0.832469 3.029927 31 13 9
6.588988 3.539031 4.448846 57 45 33
1.620122 -0.834361 3.031672 74 56 46
1.621362 -0.835138 3.032003 7 7 7
1.620072 -0.834058 3.031627 7 1 1
1.620232 -0.834346 3.031678 148 126 113
1.620881 -0.834930 3.031847 26 13 22
1.620893 -0.834944 3.031852 150 130 129
1.620241 -0.834322 3.031677 156 136 129
1.620938 -0.834947 3.031868 131 114 104
1.620518 -0.834558 3.031746 82 62 55
1.620884 -0.834948 3.031849 83 71 75
11.274493 1.566201 4.933736 46 22 10
1.620879 -0.834948 3.031848 46 34 36
1.620881 -0.834930 3.031847 26 13 22
1.618071 -0.832285 3.030173 236 192 163
1.620476 -0.834574 3.031737 149 132 125
1.619892 -0.833472 3.031468 57 45 33
1.621405 -0.835204 3.032015 120 111 102
1.620309 -0.834526 3.031702 120 97 89
1.621341 -0.835199 3.031996 43 38 34
1.620941 -0.834947 3.031868 145 128 121
1.620934 -0.834990 3.031865 155 137 133
1.620240 -0.834376 3.031683 63 36 27
1.621176 -0.834886 3.031935 67 63 64
1.620913 -0.834977 3.031859 29 10 12
1.621438 -0.835136 3.032035 88 81 73
1.621325 -0.835109 3.031992 3 0 0
1.620375 -0.834156 3.031690 27 16 20
1.620467 -0.834565 3.031735 56 36 29
14.256658 0.824887 2.313628 161 143 139
2.319846 0.005212 2.891123 28 11 1
1.619909 -0.833701 3.031012 12 8 7
1.620937 -0.834687 3.031864 60 55 52
1.620958 -0.835136 3.031868 122 113 108
1.621335 -0.835118 3.031994 107 97 87
1.620290 -0.834364 3.031689 87 63 59
1.621263 -0.834982 3.031963 94 84 75
12.575310 1.046025 4.622479 44 28 28
1.621107 -0.834857 3.031927 107 97 98
1.621218 -0.834907 3.031947 61 56 52
11.077786 0.487251 2.351745 146 127 121
1.621434 -0.835135 3.032035 103 98 92
1.621131 -0.834876 3.031935 10 5 9
1.620955 -0.835140 3.031868 119 111 108
1.620260 -0.834372 3.031687 26 18 16
1.620908 -0.834906 3.031857 135 112 106
1.621239 -0.834916 3.031952 8 6 11
1.619240 -0.833217 3.030608 59 40 34
1.620680 -0.835403 3.031765 47 42 39
1.620572 -0.834655 3.031762 169 136 117
1.620752 -0.835237 3.031809 95 86 81
1.620261 -0.834389 3.031686 138 133 139
1.620260 -0.834372 3.031687 26 18 16
1.620020 -0.833884 3.031600 33 18 11
1.621347 -0.835121 3.031998 79 69 60
1.620242 -0.834457 3.031601 109 85 73
1.621041 -0.835202 3.031906 5 1 2
1.620341 -0.834328 3.031402 146 129 121
2.480982 0.135219 3.020364 118 106 92
1.620772 -0.834592 3.031819 82 72 62
1.620377 -0.834295 3.031697 79 60 53
1.620582 -0.834594 3.031772 154 114 102
1.620742 -0.834976 3.031416 34 23 21
1.621003 -0.835613 3.031839 10 8 11
1.621345 -0.835144 3.031996 10 8 9
14.241877 0.927671 2.254014 134 116 104
12.404375 0.867715 4.641867 55 36 29
1.620501 -0.834526 3.031740 47 29 27
1.621224 -0.835126 3.031975 124 113 111
6.318947 3.649816 4.906513 50 38 26
1.621178 -0.834869 3.031761 104 95 96
1.620915 -0.834650 3.031853 4 4 4
1.620035 -0.833879 3.031604 121 96 89
1.620880 -0.834724 3.031842 68 61 55
1.620292 -0.834406 3.031693 99 81 71
1.619617 -0.833613 3.030792 144 116 105
1.620241 -0.834322 3.031677 156 136 129
13.328885 1.127863 4.754159 45 27 25
1.620255 -0.834313 3.031678 145 106 75
1.621396 -0.835210 3.032019 64 51 42
1.620945 -0.835134 3.031866 45 40 36
1.618676 -0.832607 3.030627 27 18 19
1.620943 -0.835004 3.031869 16 6 7
10.968481 0.557193 2.309349 142 124 114
1.620939 -0.834769 3.031863 71 61 51
1.620614 -0.834483 3.031790 91 69 58
1.620820 -0.834501 3.031581 8 8 10
1.620506 -0.834502 3.031741 42 28 25
1.620933 -0.834994 3.031864 38 24 24
