ply
format ascii 1.0
element vertex 1245
property float x
property float y
property float z
property uchar red
property uchar green
property uchar blue
end_header
12.880534 21.552967 -25.527468 221 227 225
12.921083 21.627381 -25.611491 123 152 147
12.886854 21.587305 -25.563979 230 220 228
12.859490 21.540261 -25.503070 181 149 150
3.752926 4.832709 -5.373553 47 47 59
12.848640 21.492994 -25.458643 9 6 13
12.867504 21.537112 -25.499360 142 162 150
3.754981 4.832409 -5.372938 208 119 111
3.761436 4.589768 -5.111274 141 158 140
4.322572 0.973024 11.282879 58 62 74
4.357107 1.108017 11.589128 24 25 30
-0.185068 -0.599367 7.598375 68 57 55
5.016102 -0.248444 10.876479 70 65 61
4.230275 1.893670 11.335855 245 238 245
4.655541 -0.422113 10.687280 161 159 160
1.251267 2.877862 9.347484 22 24 39
4.193132 1.695962 11.204624 243 232 238
5.326291 -0.432319 9.936208 151 142 137
4.750404 2.083425 9.768166 186 189 194
4.208570 1.793001 11.270205 248 237 245
2.178846 3.442196 8.108243 0 0 7
1.815503 -0.799818 5.911696 4 0 0
0.952809 -0.171364 9.552777 16 16 18
0.952809 -0.171364 9.552777 16 16 18
4.727492 3.016580 9.693216 215 216 220
2.255910 2.339034 10.428683 232 228 229
1.981110 -1.573457 8.649429 11 3 0
2.008466 2.624426 10.646003 36 29 36
3.123053 -1.598024 9.278665 27 13 12
-0.133403 0.969734 7.049067 149 131 131
2.983004 -1.554884 8.897674 141 132 125
-0.296364 1.049788 6.398775 160 149 145
-0.693238 -0.617105 7.185153 164 160 157
4.203225 0.646479 11.335227 128 114 113
6.583479 4.772531 10.704202 57 52 48
4.887129 0.566568 34.173378 128 144 133
1.677021 0.353829 2.150718 183 192 199
1.511804 3.220604 9.172477 128 158 194
1.943393 4.197355 45.195366 188 212 224
-0.263133 1.323248 6.698412 98 5 34
4.293736 1.486493 11.643276 240 230 231
4.175387 1.032625 12.196704 255 237 239
-0.133403 0.969734 7.049067 149 131 131
2.086905 4.215163 6.703735 6 6 8
0.889067 0.762600 9.827849 199 218 224
6.609394 2.986717 11.480872 224 218 222
6.657322 3.102156 11.498016 203 202 207
4.245740 0.537915 11.504589 106 92 91
4.734586 -0.204152 10.636098 133 129 128
3.468461 -3.837027 9.656120 80 77 72
1.566627 0.280788 1.299792 174 202 205
4.625679 3.482672 9.987996 123 123 123
4.850754 3.052064 10.150106 150 155 161
2.591479 2.783805 10.519194 208 216 227
2.278411 3.493823 8.031437 207 227 254
0.423821 4.283594 6.864392 60 56 53
4.573552 -3.723893 9.936117 90 87 82
4.259412 1.209221 11.507755 218 212 214
1.821054 2.946824 10.181366 159 63 77
-0.109515 3.899712 4.699219 233 238 232
5.542192 3.577581 9.259083 18 16 19
6.657322 3.102156 11.498016 203 202 207
4.342522 -3.730978 9.846504 88 85 80
6.591395 3.266219 10.638932 255 253 255
1.833932 2.798832 9.923309 195 69 83
1.945873 4.137703 6.329365 115 114 112
1.115917 -2.398299 5.762380 118 115 110
2.141242 1.559169 -0.980824 138 137 132
-0.238322 1.437283 7.172085 152 141 137
-0.119406 0.899884 7.016610 71 7 31
1.513954 3.278757 9.564028 217 244 255
1.954733 4.135118 6.329443 110 106 105
1.714902 -0.366076 2.095357 88 85 80
1.816837 2.990079 10.058719 176 58 80
0.938438 -0.047788 10.096434 152 142 133
9.779087 0.401721 17.966897 247 221 222
4.247801 1.560736 11.383196 255 251 255
4.763270 2.888501 9.181674 94 84 82
2.654431 -1.489134 9.458361 43 39 40
4.191165 4.091939 6.695101 111 107 104
0.866490 0.969461 11.017454 28 26 27
4.973070 3.209226 10.407433 222 223 227
2.990826 1.330054 10.981605 248 251 255
0.679072 4.270634 7.515163 6 4 7
1.997291 2.130723 10.622128 22 20 25
-0.006766 3.766705 8.321882 6 6 6
9.993365 0.854138 18.631154 171 136 140
1.415895 0.378393 8.433413 145 168 142
4.160164 2.018957 11.061423 244 238 242
1.394648 2.930335 9.277840 210 6 91
2.618420 2.834284 10.742628 206 214 225
1.707597 1.127367 10.358097 145 167 181
3.339130 3.356049 -3.421120 156 135 132
-0.868547 -0.624055 7.494987 15 10 6
0.458111 4.162407 7.171542 75 62 54
2.294779 3.701851 7.419013 80 107 137
-0.077233 3.515487 38.179239 193 212 218
2.179283 3.417916 8.237443 155 198 232
2.278411 3.493823 8.031437 207 227 254
1.850355 0.202907 34.379670 216 247 188
2.460385 3.495895 7.320852 93 110 126
2.654431 -1.489134 9.458361 43 39 40
0.896214 -0.090225 9.875022 117 109 106
1.511975 3.105957 9.397825 71 68 89
1.479734 2.946458 9.321374 189 0 80
3.263345 -4.083704 8.109249 119 115 114
2.140283 1.556992 -0.979393 247 227 226
4.276488 1.632119 11.775188 190 175 180
1.178721 3.063964 9.168881 14 12 15
-0.350789 0.831737 6.603091 168 159 154
1.288771 3.124070 9.425726 32 21 29
1.326953 3.748562 6.691953 62 52 50
2.141050 1.557436 -0.980071 187 214 233
4.721020 0.779208 33.747897 117 135 113
4.259884 4.140887 6.740789 134 133 131
-0.317458 2.890197 8.572683 118 107 103
5.805457 0.270872 9.889469 159 138 135
4.402342 3.163350 12.302979 12 11 16
1.849716 1.198263 10.566324 248 255 255
2.183044 -2.102729 5.696334 80 79 75
1.816102 3.775116 4.782025 53 62 71
4.676693 2.959768 8.949705 95 85 83
3.007997 2.353142 11.014121 234 237 242
-0.333035 1.229200 6.530929 78 28 40
4.219339 3.969688 6.339813 247 250 243
0.375728 4.219786 7.391171 8 6 9
6.348960 4.577020 10.762093 44 34 32
2.416173 2.711242 9.710785 32 40 53
0.488603 4.031036 6.963527 77 64 55
3.916429 0.633751 12.900239 158 138 140
1.299210 4.126094 6.304578 11 9 12
4.219339 3.969688 6.339813 247 250 243
1.604933 3.259816 9.492977 83 65 87
-1.844844 4.716003 9.067814 30 23 17
-0.680931 -0.633351 7.375132 5 1 0
1.635611 0.242520 1.411372 183 208 213
1.816102 3.775116 4.782025 53 62 71
-0.349912 3.956949 9.104131 5 4 10
-0.179225 0.884226 6.952670 71 16 45
2.301642 3.540060 7.091196 61 74 93
3.464807 3.976001 -4.305198 151 141 139
1.326953 3.748562 6.691953 62 52 50
2.719794 2.916933 10.444177 54 56 68
4.022380 0.743184 12.312578 255 237 237
5.147791 0.015270 9.797458 131 126 122
7.289468 1.677746 11.914188 185 175 176
3.174798 2.339600 10.928769 63 62 68
1.549123 1.133110 2.780930 150 178 217
3.293128 4.502234 8.287456 52 47 44
1.635611 0.242520 1.411372 183 208 213
2.539202 -1.403076 8.601218 8 4 3
2.611372 1.206484 10.898561 116 138 152
6.563886 3.492975 10.996188 106 109 126
3.023192 2.957821 11.081248 229 232 239
6.536343 3.064523 11.309941 232 226 230
3.349437 -1.274486 7.665028 162 154 151
-1.756097 4.250811 8.918010 96 87 82
-0.259567 0.852382 6.575830 124 98 99
1.034890 -4.055361 8.931703 129 126 121
7.292757 0.346679 13.115389 249 231 231
4.348520 2.271039 11.267817 22 21 29
1.511141 0.468212 1.648963 39 34 31
2.114321 3.346365 8.113304 8 4 5
2.905684 1.183353 10.640466 119 135 150
5.751791 3.235599 9.727392 23 21 24
-0.369212 1.468897 7.284794 162 150 150
1.273748 3.655414 6.374617 62 49 41
6.751763 2.024287 11.656724 229 217 221
1.781536 3.831143 8.408468 11 9 12
1.910699 2.791171 10.225681 255 247 227
2.107856 3.114749 6.471549 35 44 53
7.283627 1.653747 11.967066 237 227 228
2.846363 1.223312 10.914002 197 210 226
1.384088 3.206882 9.322257 230 253 255
-0.593523 4.898707 9.861229 52 50 51
2.551999 2.792131 7.762102 100 109 126
2.140426 1.554972 -0.977946 78 65 57
1.453616 2.844002 9.458020 59 46 63
4.645552 4.501355 8.511885 83 74 69
3.459316 4.189185 7.557313 65 54 48
1.178721 3.063964 9.168881 14 12 15
-0.512603 3.254681 9.647678 131 118 112
7.346487 1.394312 11.983395 255 250 255
1.475676 3.395339 9.745342 183 200 230
6.675336 2.169930 11.672247 220 215 221
6.767603 2.680311 11.752631 222 221 226
4.887129 0.566568 34.173378 128 144 133
4.098537 1.590629 12.683747 255 251 254
1.406794 2.779124 9.358303 95 31 66
1.655300 4.010434 8.260998 8 8 10
1.665602 0.250681 1.539976 153 160 170
1.926354 4.476317 10.185923 95 96 101
4.715690 2.909260 8.669663 230 235 241
2.987676 -1.325156 7.487675 173 168 162
1.363628 3.088558 9.428454 77 88 106
4.794122 2.775690 9.740320 175 178 183
3.994675 1.783976 12.662060 252 241 245
-0.063447 1.099251 6.264965 145 131 130
1.498428 2.881918 9.613866 246 227 246
3.050871 2.998967 10.962546 73 56 64
3.964372 0.643682 12.551708 255 250 247
4.750196 2.961623 8.881884 77 67 65
3.403074 2.739026 7.399221 57 53 52
2.017475 3.123203 10.417510 143 32 51
1.602483 3.115237 9.348842 199 186 178
2.294060 -0.351202 9.432805 149 140 131
4.408194 0.890410 35.220883 217 242 203
2.539164 1.370152 10.728239 151 165 174
1.966721 -0.753563 5.177472 7 3 4
2.455473 -1.027820 8.162550 4 0 1
0.747975 1.351441 13.069078 195 198 205
1.299210 4.126094 6.304578 11 9 12
4.478742 2.767447 8.079802 42 41 47
0.995504 -4.470242 8.554001 91 88 81
4.822520 1.831222 33.198463 163 182 176
4.082078 3.216201 12.325188 186 165 170
1.526359 2.778491 9.774059 216 224 235
2.189468 2.719697 9.943683 251 171 138
4.319450 3.081142 11.023213 144 160 173
6.571037 3.400263 10.934419 118 104 104
3.341284 3.815102 7.384699 83 81 84
1.980259 3.691432 8.255824 68 66 69
2.473797 2.754397 7.586061 74 82 101
0.370836 0.727272 53.202307 138 143 137
2.140531 1.557739 -0.979661 7 0 0
3.403074 2.739026 7.399221 57 53 52
8.215243 0.323304 14.492997 157 138 132
1.814589 2.387872 6.412071 4 3 9
1.500196 0.400618 1.412625 180 188 190
5.097962 0.092220 9.680827 105 100 96
3.949542 0.438465 13.331431 255 240 236
5.719782 1.655236 33.532352 219 240 233
2.473036 3.557462 7.342446 19 19 27
3.938142 2.009244 11.115727 230 219 225
2.788178 -0.903277 8.924241 94 85 78
2.138966 1.554876 -0.976485 255 244 238
0.858154 0.706063 38.429847 155 177 139
0.105741 0.936583 5.397540 137 123 122
8.385155 0.368277 14.761834 255 243 240
7.339183 1.841794 11.992607 153 141 143
1.211784 2.969601 9.120618 175 196 201
4.687335 3.442537 10.057517 221 221 223
4.339460 1.775507 32.287000 237 254 248
1.211784 2.969601 9.120618 175 196 201
4.305657 0.068530 11.065792 16 16 18
4.315346 4.325336 8.067571 68 55 47
2.129541 2.168691 10.315376 172 182 194
4.715690 2.909260 8.669663 230 235 241
1.113828 2.261637 6.833164 13 11 14
1.838450 2.765933 10.045478 237 232 228
5.557602 3.975762 9.087240 14 12 13
4.672938 2.833114 8.482420 228 234 248
2.178315 0.513127 4.599777 172 172 182
1.776230 3.068969 9.779510 228 159 180
0.122871 4.509297 7.869334 14 10 11
3.130032 2.844971 10.633900 16 13 20
4.064362 3.122675 11.960335 80 77 84
2.139690 1.556293 -0.978367 154 154 162
8.317522 0.623975 14.072970 255 248 246
1.410315 2.788708 9.283330 239 238 254
2.140171 1.554173 -0.976594 13 13 15
1.689554 3.161214 9.507385 169 105 80
1.923447 2.845284 10.576159 64 42 45
1.407871 0.396598 39.601183 202 229 178
3.901767 0.142058 13.945774 129 114 109
2.584762 1.896597 10.589366 229 243 254
7.339183 1.841794 11.992607 153 141 143
1.869186 1.505248 3.788595 0 0 12
2.382950 0.169890 12.728189 215 236 195
6.751763 2.024287 11.656724 229 217 221
2.247328 2.374073 11.206768 214 218 227
6.483602 3.330531 10.482098 85 87 99
-1.030001 6.479790 17.672200 24 19 26
4.645552 4.501355 8.511885 83 74 69
3.992974 3.102028 11.684241 24 13 19
4.940559 0.209358 33.144150 129 143 107
1.684212 0.329004 2.266262 187 212 183
4.296085 0.269940 35.607188 224 250 185
2.139387 1.555776 -0.977588 131 130 136
1.532033 0.355575 1.380362 59 42 35
1.716554 3.166362 9.437721 198 159 126
2.140250 1.555141 -0.978106 57 47 45
2.139722 1.556892 -0.979308 137 120 126
5.364518 2.602485 9.155389 93 94 98
1.716554 3.166362 9.437721 198 159 126
1.169712 0.181004 43.610748 143 144 139
0.405805 0.747350 37.509608 221 237 208
0.390143 2.638641 7.114901 10 5 11
1.735253 3.161178 9.524598 138 99 92
1.326676 3.005366 10.104451 195 204 221
2.584762 1.896597 10.589366 229 243 254
8.129913 0.427747 14.217408 255 235 236
4.492142 1.805843 37.592035 147 173 172
1.209242 0.562305 5.857846 220 223 232
2.539164 1.370152 10.728239 151 165 174
7.798850 2.322955 12.416463 192 189 196
4.317788 6.292923 -7.860339 13 9 10
1.769737 1.866902 10.322507 213 230 246
4.315254 6.288227 -7.857227 234 225 230
4.317260 6.292326 -7.859878 153 146 140
4.313262 6.289750 -7.858552 199 194 191
4.315380 6.287596 -7.857007 255 247 246
1.769737 1.866902 10.322507 213 230 246
7.996347 3.368522 12.342421 232 230 235
4.319247 6.296955 -7.861835 103 102 97
3.154474 -3.777921 7.749282 12 12 12
4.315988 6.289711 -7.855311 3 0 0
3.107642 -2.899858 7.659016 140 136 133
4.313418 6.289753 -7.858297 230 225 229
7.777110 3.341146 12.257335 158 158 156
4.315988 6.289711 -7.855311 3 0 0
7.881843 4.688088 11.844495 106 102 101
4.316404 6.292130 -7.859563 9 3 3
4.313298 6.288688 -7.858455 246 236 235
8.052437 4.879405 11.806793 90 86 83
9.152962 1.277156 13.949118 213 198 203
4.317481 6.287421 -7.857258 184 198 198
3.034242 1.398676 10.693490 157 148 151
4.313499 6.288848 -7.858258 206 199 206
0.853103 2.833637 9.841340 161 190 204
4.313296 6.288411 -7.858431 232 230 235
4.317229 6.293191 -7.860522 7 3 2
4.316060 6.288045 -7.857546 235 237 250
4.315007 6.294938 -7.859883 84 83 78
4.317027 6.292602 -7.859862 7 3 2
4.317267 6.287513 -7.858223 255 165 116
8.156130 1.482268 12.732077 199 194 191
4.317042 6.292613 -7.859911 6 2 1
4.316318 6.289009 -7.857578 149 172 186
9.125106 2.127456 13.883073 167 158 163
7.777110 3.341146 12.257335 158 158 156
4.316405 6.287929 -7.857515 229 233 242
1.954509 0.780117 3.664357 236 216 225
7.708359 2.604920 12.640461 183 180 187
7.964495 4.958027 11.893239 77 73 70
4.313176 6.287720 -7.858727 128 126 127
4.316691 6.296681 -7.862175 125 124 119
5.441494 -0.360810 10.017559 84 81 76
4.314401 6.287550 -7.861974 153 149 146
4.313176 6.287720 -7.858727 128 126 127
4.313178 6.288766 -7.857958 23 2 7
6.974941 2.395106 12.056856 215 202 211
3.042254 -0.935377 9.043730 116 108 105
2.383780 -0.048287 10.489258 11 9 10
4.316873 6.287354 -7.857994 235 240 246
4.319264 6.296977 -7.861831 25 22 17
7.778747 2.558197 12.533763 43 42 48
4.343739 -0.112485 11.293233 137 131 131
8.071430 3.647507 12.401430 194 191 200
4.875440 2.496768 10.592552 172 178 190
4.318336 6.294888 -7.858795 33 30 25
4.316287 6.289693 -7.857686 172 149 131
4.313282 6.290034 -7.858492 255 237 229
4.315650 6.283952 -7.851667 116 141 146
4.319813 6.299085 -7.876936 135 131 130
6.966429 1.349188 12.244077 34 23 27
5.737443 4.248184 9.638428 15 9 9
7.924069 5.001073 11.886065 33 26 20
4.315163 6.288202 -7.863007 164 163 159
1.314610 2.866372 9.140093 49 27 40
4.314564 6.291041 -7.859188 136 131 127
7.926274 3.609359 12.276798 11 10 16
4.313265 6.287522 -7.858499 105 103 104
3.968087 3.756031 8.368302 140 140 142
4.317025 6.289785 -7.858025 199 222 180
5.425558 4.758717 9.258778 40 31 26
8.192608 4.936567 11.743525 75 69 71
2.198720 0.495258 2.382400 244 234 235
7.687811 2.325831 12.503335 233 232 237
8.052056 5.351325 11.867146 7 5 6
4.316289 6.294581 -7.861898 199 192 186
4.736855 2.738349 9.938621 163 168 174
4.313083 6.289318 -7.858153 243 234 237
4.316276 6.287267 -7.857425 221 229 231
4.316073 6.288393 -7.858987 251 214 222
5.169594 -3.618310 10.005242 62 59 54
4.742334 4.436214 7.254536 82 69 60
3.022211 2.254681 10.522621 151 136 143
1.883180 2.906943 9.532601 141 48 58
4.316789 6.294910 -7.861800 146 137 132
4.781975 1.919367 10.405416 166 175 184
4.317108 6.292687 -7.859922 4 0 1
1.416873 2.977540 9.116589 47 54 70
4.318003 6.287365 -7.858684 130 21 60
7.922558 1.113677 13.213291 220 204 207
4.313413 6.288742 -7.858249 112 111 117
4.317108 6.292687 -7.859922 4 0 1
4.314580 6.284159 -7.851178 145 171 184
2.368104 0.532088 6.420739 20 17 26
7.577550 2.324681 12.489968 228 223 227
4.315439 6.288623 -7.856935 167 149 149
4.318005 6.287185 -7.858647 129 147 185
4.313484 6.288205 -7.858164 217 218 223
7.869621 3.635452 12.308580 64 72 74
4.804681 3.065668 9.781662 197 198 202
4.327875 6.318150 -7.901628 135 130 126
1.886142 3.777907 7.760621 57 56 61
3.899548 0.571614 12.563666 250 232 230
7.605426 3.372995 11.135784 78 77 85
4.317732 6.287073 -7.858507 52 25 18
6.802429 2.465491 11.721543 212 203 208
4.313432 6.287476 -7.858768 31 26 22
8.136833 5.267441 11.901750 59 55 54
4.821612 2.810216 10.266472 159 164 170
4.313318 6.290653 -7.858806 108 94 91
4.316947 6.287845 -7.857684 177 188 192
4.316464 6.295063 -7.861887 149 141 138
5.199385 1.585916 9.804352 49 39 37
1.956679 0.610115 3.522978 254 236 236
7.695763 2.486307 12.501296 208 203 210
4.317325 6.292364 -7.859969 83 74 67
1.485980 3.123029 9.086630 129 137 158
8.057331 4.990489 11.746848 58 53 50
4.313390 6.288480 -7.859069 202 192 200
2.209823 3.685448 7.470619 2 11 20
4.316844 6.287070 -7.857968 181 195 206
4.319586 6.301802 -7.875713 152 131 130
7.770885 1.526836 12.628908 55 46 49
4.313430 6.288373 -7.858195 217 218 223
4.316065 6.286212 -7.853244 116 135 131
4.214540 3.810322 8.707335 3 2 7
3.283770 2.277564 8.798465 42 29 36
1.975227 3.611381 7.900446 128 126 127
4.317946 6.287395 -7.858065 138 161 177
4.317500 6.288034 -7.861333 48 46 49
6.890417 3.056939 11.948353 221 220 225
4.316402 6.292016 -7.859541 118 108 106
4.317885 6.287327 -7.858606 142 30 76
4.315096 6.287484 -7.858501 116 118 115
9.048990 1.194931 14.249394 167 148 150
7.960298 2.441453 12.591574 15 12 19
4.314193 6.290124 -7.859123 10 4 6
4.319339 6.286150 -7.861649 13 11 12
4.316027 6.286274 -7.853337 162 169 151
7.960298 2.441453 12.591574 15 12 19
4.316387 6.288588 -7.857623 109 107 112
4.316985 6.292227 -7.859789 108 99 92
4.129854 0.554890 11.930132 96 78 76
4.318292 6.288100 -7.858426 114 142 145
9.303449 0.716741 13.870591 110 92 92
7.793164 3.474427 12.222649 7 5 10
8.111324 5.125108 11.795359 8 8 8
4.316995 6.288552 -7.858106 218 223 229
1.356432 2.848182 9.149942 221 185 211
4.313362 6.290436 -7.858467 7 6 11
7.528367 4.780947 11.756367 109 104 100
4.313338 6.288991 -7.858378 15 12 19
4.319879 6.301463 -7.876643 7 5 10
4.315316 6.287576 -7.857158 255 251 253
1.722471 3.175839 9.253281 68 31 25
4.317750 6.286858 -7.857686 239 237 250
4.317913 6.287350 -7.858544 248 187 231
4.315484 6.286385 -7.853544 218 241 231
7.903759 1.324917 12.755747 25 21 22
1.349479 8.708365 15.670832 50 41 34
4.313449 6.289424 -7.858297 246 246 248
7.256055 0.721984 12.537574 199 174 177
4.315484 6.286385 -7.853544 218 241 231
6.150842 3.586366 9.998088 23 21 24
4.317915 6.287540 -7.858615 110 36 71
4.318200 6.288883 -7.857956 228 238 248
4.316931 6.287695 -7.857656 201 206 210
4.315951 6.287875 -7.860229 6 6 8
4.317664 6.292576 -7.865283 194 197 202
7.903759 1.324917 12.755747 25 21 22
4.317830 6.287047 -7.858477 172 181 214
2.664050 2.229099 10.591540 134 147 153
4.313734 6.289148 -7.858143 215 203 205
4.314920 6.281674 -7.849773 217 235 235
4.318035 6.287415 -7.858617 92 87 110
4.316027 6.286274 -7.853337 162 169 151
7.996032 0.300687 12.991538 7 6 11
4.318006 6.289428 -7.858657 122 141 139
1.578340 2.910547 9.196176 210 183 198
4.316108 6.288355 -7.858925 113 106 113
4.313102 6.289862 -7.858178 148 137 143
4.321856 6.303505 -7.877992 249 223 226
4.314372 6.290340 -7.858280 77 72 68
4.315992 6.286569 -7.853331 134 161 116
6.997294 1.781975 12.187163 215 203 205
4.317385 6.287005 -7.858166 156 94 69
4.315246 6.284717 -7.852730 146 159 167
2.403002 -1.592957 8.775047 137 131 119
1.982369 -1.015912 8.565944 10 4 4
6.810322 3.408311 11.201394 12 7 11
1.985522 -1.125059 8.554190 10 4 4
8.873743 3.410828 12.611289 234 238 250
3.795047 4.441611 -4.250957 164 159 165
1.968198 -1.180842 8.519232 135 128 122
9.643193 4.777851 12.383992 107 100 94
1.985491 -1.166633 8.558571 6 0 0
3.504429 3.339845 -2.696742 122 120 121
3.504485 3.338976 -2.696027 8 3 7
5.121884 4.456646 6.696221 149 148 143
3.794521 4.440487 -4.250676 14 13 18
8.879991 3.411319 12.635771 228 227 235
4.197241 1.702301 11.248667 248 236 240
2.171852 1.176869 10.243875 173 191 193
3.794549 4.440512 -4.250659 112 101 97
3.795030 4.441646 -4.251022 180 175 182
3.795030 4.441646 -4.251022 180 175 182
4.202305 0.567224 11.413047 122 103 99
3.138721 -3.802852 7.688738 118 118 120
3.505187 3.341194 -2.697703 28 30 42
8.885627 2.849251 12.695768 233 230 237
3.613718 2.864177 -1.877054 99 92 84
1.305152 2.949055 8.924508 18 16 17
1.966700 -1.221492 8.522902 136 129 123
8.718052 -3.347466 10.887820 55 42 33
2.171852 1.176869 10.243875 173 191 193
4.201010 1.956922 11.224727 255 251 253
3.495566 2.864577 -1.743905 4 2 3
5.141886 8.273271 -10.007592 26 23 30
3.504755 3.342953 -2.699140 90 78 78
2.125575 1.239541 10.206617 199 212 221
3.495501 2.865509 -1.744550 7 0 0
7.692513 2.271828 12.498643 229 224 230
3.795039 4.442460 -4.251592 2 3 8
8.876062 2.751498 12.688531 221 218 227
2.131655 3.054382 9.122815 190 119 91
3.794945 4.440683 -4.250415 30 24 28
3.795169 4.441441 -4.250710 244 234 232
6.840640 3.205049 11.845437 209 204 210
3.495618 2.865372 -1.744477 14 9 13
8.879991 3.411319 12.635771 228 227 235
3.495501 2.865509 -1.744550 7 0 0
6.708995 2.609107 12.196928 120 129 136
2.751720 2.149625 10.490466 165 179 188
6.595071 4.317404 6.281976 222 224 221
3.027162 2.005853 10.545453 150 148 151
3.794928 4.442744 -4.251887 161 141 132
3.794958 4.439798 -4.249751 227 217 225
7.692513 2.271828 12.498643 229 224 230
1.778090 0.773549 10.278265 152 179 190
2.479868 4.418374 7.204564 8 6 9
5.142056 8.273263 -10.007419 227 217 225
3.405253 2.819755 -1.784541 136 122 111
4.267322 2.284612 11.194538 31 24 31
3.504868 3.341758 -2.698169 252 246 248
5.266853 4.331567 6.340941 255 255 247
3.495700 2.864739 -1.744041 14 10 11
2.993738 1.376006 10.744837 49 45 46
3.495530 2.864963 -1.744165 103 88 81
2.602011 0.524216 3.992056 203 226 200
3.144246 -3.662451 7.771592 5 3 4
2.984746 1.818132 10.619942 131 127 124
6.708995 2.609107 12.196928 120 129 136
6.686581 0.630370 12.030367 255 234 235
6.586844 2.030455 11.921883 134 140 152
3.794848 4.441531 -4.251100 122 45 51
5.146103 8.274220 -10.007297 179 163 164
3.795417 4.438519 -4.248616 207 205 206
3.495566 2.864577 -1.743905 4 2 3
1.367800 2.653713 8.975386 158 195 213
3.794337 4.440762 -4.251114 116 105 99
3.495646 2.864818 -1.744090 117 108 101
5.143881 8.268556 -10.005893 15 8 0
8.247699 5.128334 10.932788 76 67 60
3.794406 4.439577 -4.250196 67 59 48
8.917217 2.684468 13.239887 245 233 237
1.938182 3.540122 8.227855 103 104 108
3.405091 2.819520 -1.784351 66 52 41
6.595071 4.317404 6.281976 222 224 221
8.971922 0.144042 12.645043 68 42 41
10.256309 5.007311 12.368042 14 10 11
5.143881 8.268556 -10.005893 15 8 0
3.027162 2.005853 10.545453 150 148 151
4.786780 2.072027 9.980759 224 224 226
5.144957 8.270922 -10.006427 179 173 177
3.112073 -1.792657 7.624966 150 146 143
3.310754 2.892908 -1.727330 13 4 0
6.840640 3.205049 11.845437 209 204 210
7.898575 3.873152 11.794623 8 6 9
1.365845 -3.695446 8.532917 38 37 32
8.050804 4.575645 11.641981 148 146 149
3.542109 2.734621 8.937363 16 13 24
3.029930 2.258817 10.943070 145 133 133
3.795657 4.440492 -4.249903 199 178 187
6.671902 0.626413 11.984931 255 231 229
4.025347 3.798765 8.442534 32 30 31
16.249996 32.102919 33.599714 81 78 73
6.896593 3.256020 12.007297 203 198 202
4.166526 1.006311 11.920872 255 239 229
3.504168 3.339988 -2.697007 3 0 0
7.667440 1.795396 12.401732 155 151 152
4.174113 2.355815 11.262362 235 220 223
3.794513 4.440351 -4.250574 64 53 49
5.142197 8.275650 -10.008541 219 209 210
5.145982 8.275001 -10.008296 217 202 199
4.468779 3.159150 4.140660 81 78 73
0.359405 -7.023947 11.629445 90 86 83
3.229394 0.467761 2.998771 149 143 145
5.490002 4.287090 5.886766 155 156 158
5.884461 4.295765 6.093381 218 220 215
8.057770 5.479362 11.961992 39 38 36
5.143494 8.274222 -10.007608 50 48 53
5.141040 8.274296 -10.008720 143 131 119
3.495699 2.865469 -1.744556 13 4 0
3.613693 2.864708 -1.877410 150 140 138
5.142006 8.272931 -10.007313 226 230 242
2.900831 -1.186869 7.540904 6 0 2
8.050804 4.575645 11.641981 148 146 149
5.141587 8.270920 -10.009862 152 153 157
3.230553 0.035902 2.268164 159 137 114
2.542597 -1.323658 8.958439 7 3 2
2.993738 1.376006 10.744837 49 45 46
6.146456 4.156722 7.580527 111 97 86
3.794906 4.443222 -4.252336 250 243 227
10.285773 5.109794 12.372292 10 10 8
2.209401 0.124002 9.799266 184 225 147
3.405238 2.819171 -1.784150 11 6 2
4.520271 4.406550 6.964664 244 243 238
3.794573 4.439800 -4.250126 13 11 14
6.374851 4.330823 6.242424 120 121 126
3.794935 4.437798 -4.248442 103 102 100
3.794698 4.441885 -4.251517 101 24 32
1.415818 2.640198 8.919964 83 7 53
3.795130 4.440895 -4.250440 238 223 230
3.504620 3.340357 -2.697096 140 143 158
259.511369 236.732732 397.668481 140 140 142
3.495505 2.865011 -1.744195 117 100 90
5.142502 8.269928 -10.008120 244 244 242
0.356113 -7.029981 11.629593 247 232 235
2.520946 0.481641 10.472998 129 152 144
3.495690 2.865460 -1.744548 137 126 124
2.323411 2.906129 7.419825 68 77 94
2.378426 -0.595814 8.936152 137 132 128
2.270172 1.774085 10.282132 121 122 127
3.795338 4.442065 -4.251169 148 139 142
3.505154 3.341687 -2.698096 200 183 191
2.937956 2.024783 10.676025 244 251 255
4.520271 4.406550 6.964664 244 243 238
4.187363 0.109900 11.493457 83 68 63
4.918935 0.294849 4.393462 40 15 18
8.922043 2.852138 13.724969 246 234 238
6.326987 4.284243 6.244990 120 123 128
8.692200 -3.330214 10.843008 55 42 33
3.795366 4.440601 -4.250095 150 141 142
3.613691 2.866332 -1.878493 91 61 51
7.278412 3.195455 12.258787 208 205 212
3.241013 -1.748334 7.553229 150 145 142
3.794874 4.437961 -4.248615 103 104 108
1.889438 3.717302 7.714396 60 60 62
5.140978 8.272226 -10.007774 61 56 52
3.794514 4.436792 -4.248354 242 241 237
2.355091 2.841821 7.404640 61 60 76
10.570751 5.239168 11.715222 88 75 66
6.896593 3.256020 12.007297 203 198 202
7.774045 0.367982 12.200044 142 128 125
3.523449 1.019751 3.110932 160 160 160
2.097102 2.994081 9.076853 126 83 74
3.795707 4.439676 -4.249292 131 137 149
5.141904 8.273061 -10.007463 61 64 73
35.418459 41.793721 61.688578 244 245 247
2.772412 0.383567 3.116937 8 6 7
3.794771 4.442687 -4.251989 147 60 53
3.795707 4.439676 -4.249292 131 137 149
3.405332 2.820458 -1.785029 84 69 64
7.814321 3.608144 12.193520 72 72 80
5.145144 8.271032 -10.006543 213 208 214
3.088939 -3.696968 7.791175 138 137 132
3.430581 0.309396 3.100361 115 106 111
5.142839 8.272784 -10.007066 147 141 151
5.747994 4.347348 9.815771 106 93 84
3.156712 -3.796624 7.799641 14 14 16
1.380711 2.847433 8.916396 106 34 58
3.466514 3.334753 7.660310 5 3 6
1.713977 3.072818 9.061268 206 167 138
10.240839 0.946085 19.973918 163 131 134
1.758300 2.958756 9.527624 255 243 247
3.794514 4.436792 -4.248354 242 241 237
3.504870 3.342309 -2.698616 235 216 212
6.652299 4.943556 11.575743 119 108 106
0.356242 -7.025827 11.627327 5 3 6
3.795267 4.439287 -4.249213 172 167 171
3.794880 4.442833 -4.251918 85 30 35
3.795517 4.436833 -4.247295 57 46 44
0.358530 -7.033550 11.631396 137 122 119
1.415515 2.873930 8.910759 155 164 171
2.520946 0.481641 10.472998 129 152 144
0.994914 0.854113 9.455184 42 40 43
3.795352 4.439896 -4.249589 224 227 236
4.732414 1.113221 6.689722 227 229 244
3.794985 4.437946 -4.248486 12 10 13
3.704830 2.154322 13.042639 246 226 235
3.495681 2.864610 -1.743946 61 56 52
1.513199 1.517786 10.228551 166 183 191
5.145835 8.270112 -10.007084 120 119 124
5.141085 8.272352 -10.007712 16 11 5
3.504817 3.342328 -2.698614 173 167 171
2.422312 2.690714 7.404127 82 92 117
3.795499 4.438412 -4.248545 115 96 100
3.310732 2.892104 -1.726781 11 6 2
3.504916 3.338577 -2.695569 72 61 59
5.145835 8.270112 -10.007084 120 119 124
3.369530 2.502097 9.396835 125 122 131
3.795630 4.438242 -4.248266 102 106 109
3.495695 2.864636 -1.743964 9 7 8
3.495726 2.864719 -1.744033 89 81 78
2.034542 2.913375 9.443976 137 71 72
6.476750 4.290497 6.250893 192 194 189
2.080380 3.212340 9.198681 113 96 104
3.214184 -3.708506 7.816476 139 138 133
3.165870 -2.876439 7.693849 127 123 120
5.142245 8.270733 -10.006291 76 71 68
2.411202 1.271233 10.464142 193 207 218
2.241442 1.166445 10.369493 184 198 209
1.715247 3.034565 9.071835 193 166 137
1.781640 3.253939 9.350138 218 205 215
3.794496 4.439395 -4.249950 33 23 21
5.602362 4.384618 6.613530 136 130 130
1.889438 3.717302 7.714396 60 60 62
1.429828 3.003992 7.899181 170 148 160
1.552688 4.033419 7.258133 43 39 38
3.365528 2.546355 9.390687 56 41 46
3.310611 2.892082 -1.726736 77 63 52
1.611328 2.813648 9.008516 56 37 41
0.356219 -7.028515 11.622473 3 0 0
0.994914 0.854113 9.455184 42 40 43
3.322648 4.421108 7.696492 55 50 47
6.730422 4.438931 6.758467 248 250 247
3.795120 4.438481 -4.248737 10 8 11
3.405238 2.819171 -1.784150 11 6 2
8.898365 1.242107 12.593768 47 44 53
3.228275 0.527002 2.990699 151 146 143
8.843895 0.461066 12.910103 89 77 77
6.491874 4.311809 6.368009 240 242 239
5.146002 8.275715 -10.008287 87 69 67
2.138331 2.957575 9.102270 216 223 229
1.392644 2.960555 8.945086 43 48 70
1.545435 2.705447 9.605927 197 208 212
3.495612 2.866967 -1.745601 88 42 44
5.070934 4.070222 5.875504 233 235 232
2.520946 0.481641 10.472998 129 152 144
1.473715 2.881367 8.935299 191 180 186
4.302799 2.230989 11.169896 60 57 66
0.353275 -7.022745 11.626233 56 51 45
3.795369 4.440675 -4.250142 65 56 57
3.730751 3.526139 8.727822 1 0 10
1.626852 2.984574 9.237180 182 201 208
5.145854 8.274606 -10.007767 255 245 240
5.142297 8.271153 -10.006567 118 114 113
3.495504 2.865539 -1.744576 142 129 120
3.982200 4.918401 8.208639 109 93 80
4.215044 3.811935 8.708483 4 3 9
3.547050 0.598460 2.118637 135 138 143
6.791262 2.328725 11.851509 17 10 17
4.923741 1.815769 6.437912 15 15 27
8.080434 4.930918 11.257488 54 53 51
2.158429 2.606897 10.057865 195 212 222
1.455521 3.037937 8.158394 13 14 32
2.019764 2.621232 9.470791 192 87 83
1.584826 2.746973 9.031763 71 55 66
3.484192 4.276874 7.741402 73 60 51
4.627444 3.082788 10.155642 160 159 164
3.765484 3.412809 8.823662 12 9 18
8.913006 1.678434 13.039244 255 247 245
3.417474 2.637124 9.379309 124 79 82
3.799621 2.990203 9.144574 10 9 15
3.795301 4.439346 -4.249224 113 108 114
3.794835 4.439829 -4.249910 136 128 126
8.310049 2.577845 12.852818 244 232 236
4.917402 2.943448 8.989371 252 255 253
2.216305 3.020366 9.132466 127 61 35
4.446171 2.701318 7.862951 40 38 43
3.558997 2.681914 9.008167 158 143 166
3.897012 2.798701 9.113000 53 50 59
2.274609 -0.356052 9.370616 149 137 123
2.647471 2.684359 7.254152 113 114 118
2.572461 0.422161 3.902724 130 151 132
6.199707 4.284862 6.452112 168 172 175
3.663629 4.635561 8.109142 96 80 67
2.006000 2.609333 9.644450 255 228 246
0.354013 -7.025997 11.626391 53 33 35
3.794828 4.441682 -4.251231 28 0 0
6.374851 4.330823 6.242424 120 121 126
3.794457 4.440372 -4.250664 139 130 123
3.613553 2.864364 -1.877161 20 9 5
1.454427 3.019631 7.957885 47 51 62
1.497386 2.726197 8.997419 173 179 205
1.536351 3.068533 7.933989 11 11 19
3.505222 3.342567 -2.698846 212 184 183
1.672161 0.805479 29.459173 183 206 190
1.825517 2.755908 9.549947 168 66 77
3.492914 2.705585 9.073027 190 168 189
2.220924 2.736987 9.616745 254 132 91
4.340709 3.992467 8.351451 61 57 58
4.952595 0.518727 9.537649 90 81 74
2.416207 2.659620 7.387296 0 1 10
2.186609 2.640594 9.702472 255 199 175
4.743206 2.904954 8.621686 114 112 117
2.117512 2.643552 9.501648 185 84 76
1.457246 2.813148 8.893186 207 94 138
3.177788 0.250350 2.051774 136 123 114
1.958517 0.039599 29.744852 144 169 129
1.958517 0.039599 29.744852 144 169 129
0.356105 -7.027575 11.628909 12 9 18
1.537254 2.759123 8.988700 110 107 134
2.423062 0.687785 4.744820 129 148 155
2.883785 1.804166 5.635505 149 127 130
1.538862 2.832317 8.946657 221 104 159
5.146212 8.275297 -10.007885 125 111 110
1.982268 3.610941 8.037041 4 2 5
2.031814 2.977431 9.230483 255 252 251
6.326987 4.284243 6.244990 120 123 128
0.355594 -7.024620 11.625048 96 96 98
2.759859 0.838967 3.954947 119 122 131
3.295495 2.542512 9.421382 133 115 113
3.644718 1.691272 27.291975 137 162 169
3.434776 2.556975 9.372353 217 128 134
3.693204 1.094525 28.139787 211 240 209
3.927060 0.631477 12.679984 170 155 152
2.987403 0.323124 2.243889 17 15 16
2.053502 4.231614 6.605927 91 83 72
3.794666 4.443155 -4.252392 41 32 33
1.836266 3.120723 9.395956 214 180 179
3.687064 0.757968 27.693479 211 239 191
1.914946 2.614585 9.404902 190 83 75
3.589001 0.613234 28.923265 135 162 129
1.830196 2.696773 9.592701 169 47 60
2.248281 1.508364 10.298146 209 216 222
8.025823 5.034039 11.443863 60 55 59
2.158747 2.651209 9.869958 198 120 107
6.114513 2.972578 10.902296 252 255 255
0.356364 -7.023361 11.620521 213 220 226
-322.595887 882.612339 2223.759328 107 143 155
1.457246 2.813148 8.893186 207 94 138
3.795733 4.440623 -4.250019 23 17 21
2.520946 0.481641 10.472998 129 152 144
5.141427 8.276736 -10.009797 28 16 16
3.795314 4.439210 -4.249110 221 228 234
1.629443 2.985474 7.140501 84 97 114
3.563354 2.462201 9.557224 12 9 16
2.821065 1.511078 5.092951 200 206 220
3.310570 2.892256 -1.726837 39 30 25
1.562522 2.873570 9.013773 154 58 96
1.715247 3.034565 9.071835 193 166 137
4.129881 2.958642 -2.066877 74 66 63
3.686937 1.583753 0.078328 65 61 58
3.687005 1.584269 0.077930 211 214 231
3.686815 1.584684 0.077904 206 184 186
4.150267 1.348904 11.764901 245 225 227
4.130001 2.956824 -2.066612 141 139 140
4.146434 1.310603 11.482958 247 228 230
4.130275 2.960551 -2.067477 70 67 62
4.128549 2.958656 -2.067065 121 108 99
3.686891 1.584643 0.077849 216 205 209
4.129120 2.957906 -2.066673 6 3 10
4.129094 2.958009 -2.066692 27 10 16
3.687076 1.584925 0.077444 219 201 213
4.128982 2.958287 -2.066723 232 216 216
3.687069 1.584209 0.077881 9 8 13
4.129137 2.958124 -2.066997 247 232 239
3.686914 1.584293 0.078033 209 212 219
4.129141 2.957433 -2.066600 202 206 217
5.395602 -0.455419 10.240410 152 141 137
3.687002 1.584406 0.077854 192 191 199
10.813646 1.229281 13.462716 76 19 28
5.367256 -0.435022 10.072041 151 142 135
3.686799 1.584419 0.078083 232 230 231
4.129468 2.958935 -2.067763 255 244 248
3.686944 1.584865 0.077655 225 198 203
3.686874 1.584253 0.078103 226 224 237
4.130130 2.957769 -2.066634 239 219 220
3.687076 1.584925 0.077444 219 201 213
4.129046 2.957099 -2.066614 102 96 96
4.129507 2.957724 -2.066680 6 0 0
4.128777 2.958800 -2.066957 97 36 41
3.687013 1.584623 0.077711 203 193 201
4.130172 2.958014 -2.066689 175 160 157
4.128659 2.958752 -2.066985 30 18 22
4.129853 2.957130 -2.066579 150 151 156
3.686906 1.584309 0.078033 52 41 47
4.130639 2.960216 -2.071053 91 82 73
3.686904 1.584206 0.078095 202 206 217
10.727871 5.465632 12.280991 81 77 68
10.514780 5.042796 12.450671 15 11 10
10.417588 4.123056 12.796983 4 2 5
4.129103 2.957460 -2.066623 92 92 100
3.687044 1.584300 0.077856 196 205 214
4.129836 2.957072 -2.066561 200 199 197
3.686842 1.583909 0.078349 5 4 9
3.686851 1.584073 0.078238 20 15 21
4.128878 2.957632 -2.066732 10 12 25
3.687033 1.584963 0.077482 205 184 193
3.686771 1.584165 0.078270 12 11 17
4.129192 2.958111 -2.066677 203 182 191
3.687033 1.584963 0.077482 205 184 193
4.129136 2.956028 -2.066983 240 245 241
4.129127 2.957908 -2.066668 192 186 186
4.129794 2.956620 -2.066519 9 7 10
4.129038 2.958130 -2.066757 245 233 233
3.686932 1.585064 0.077543 8 9 14
4.130138 2.958308 -2.066765 115 100 97
3.686894 1.584198 0.078114 14 12 23
3.687033 1.584292 0.077877 2 1 7
4.130226 2.958153 -2.066660 148 134 133
4.130266 2.957717 -2.066571 169 156 163
3.686884 1.584855 0.077720 243 228 223
4.130154 2.960482 -2.067399 83 82 77
4.129085 2.958141 -2.066717 246 234 238
4.129181 2.956940 -2.066551 119 109 108
4.129894 2.956986 -2.066510 135 133 134
4.129008 2.956922 -2.066620 103 104 109
4.129830 2.955785 -2.066608 135 134 132
3.687027 1.583875 0.078130 51 40 38
4.129518 2.956411 -2.066484 37 26 24
3.686846 1.583724 0.078423 47 42 39
4.129347 2.958005 -2.066637 233 220 229
3.686726 1.584566 0.078070 75 41 42
9.141123 0.915231 18.330057 158 131 136
9.151487 0.914216 18.362886 158 131 136
3.686830 1.584124 0.078240 85 87 99
4.130214 2.957140 -2.066663 105 97 121
4.875948 4.024467 9.356297 9 7 10
4.128972 2.958171 -2.066720 227 212 217
10.817095 1.234225 13.469629 76 19 28
4.129520 2.957100 -2.066573 113 104 95
4.129903 2.956075 -2.065231 17 12 19
4.129086 2.957604 -2.066158 210 191 193
3.686882 1.584547 0.077915 244 233 239
10.620513 3.922286 13.254473 14 12 15
3.687011 1.584843 0.077580 227 206 213
4.130179 2.957996 -2.066657 253 229 229
3.686882 1.584547 0.077915 244 233 239
4.129718 2.958565 -2.066862 146 137 132
4.129728 2.958736 -2.066894 92 87 83
3.686704 1.583775 0.078575 56 45 43
4.130264 2.958147 -2.066670 243 228 225
3.686829 1.584325 0.078109 192 182 190
4.129119 2.957590 -2.066627 171 167 168
4.130261 2.958089 -2.066666 255 240 236
4.129528 2.958501 -2.066820 187 173 172
4.129064 2.956255 -2.066970 127 127 127
3.686960 1.584408 0.077903 197 190 198
3.686960 1.584408 0.077903 197 190 198
3.686921 1.584723 0.077765 169 159 157
3.686822 1.583780 0.078451 77 76 71
3.687046 1.584020 0.078013 20 16 17
4.128975 2.957747 -2.066695 192 182 190
4.129933 2.958608 -2.066849 137 131 133
3.686993 1.584230 0.077958 141 129 131
3.687017 1.584341 0.077869 19 18 24
3.686995 1.585021 0.077491 174 134 142
4.129935 2.956925 -2.066534 168 166 169
4.130013 2.956598 -2.066605 137 135 140
4.130290 2.957805 -2.066599 252 233 235
4.129263 2.957822 -2.066684 223 220 227
3.687002 1.585103 0.077412 255 240 240
4.129344 2.957961 -2.066744 231 224 231
3.687000 1.585053 0.077445 255 225 227
4.130245 2.958119 -2.066674 255 240 233
4.129375 2.957350 -2.066531 23 22 30
4.129383 2.957277 -2.066520 111 114 121
4.129979 2.956769 -2.066580 114 113 111
4.128758 2.956647 -2.067158 150 155 158
3.686908 1.584931 0.077656 243 223 222
4.130006 2.956959 -2.066542 192 200 211
3.687097 1.585035 0.077356 214 196 210
4.130017 2.956611 -2.066607 1 0 4
4.129030 2.958324 -2.066690 249 234 237
4.130018 2.956947 -2.066536 83 97 110
4.129165 2.956144 -2.066906 196 197 191
4.129997 2.956948 -2.066535 174 165 170
3.686990 1.585052 0.077456 255 240 236
4.130287 2.958185 -2.066686 247 232 229
3.687092 1.585099 0.077312 171 150 157
4.129483 2.956650 -2.066513 38 29 24
4.129191 2.958392 -2.066667 240 215 218
4.129150 2.957588 -2.066620 240 239 245
4.130257 2.957099 -2.066582 246 237 242
4.129202 2.958278 -2.066476 255 237 237
4.130266 2.957717 -2.066571 169 156 163
4.129882 2.956982 -2.066519 245 244 242
4.128965 2.957008 -2.066666 63 59 60
4.129730 2.958563 -2.066870 71 61 59
4.130294 2.957762 -2.066582 255 252 255
4.129924 2.956510 -2.066574 63 60 55
4.129869 2.955847 -2.066574 124 121 114
4.128935 2.957823 -2.066345 186 180 184
3.686826 1.584885 0.077766 123 105 105
3.687072 1.584316 0.077814 202 218 231
4.129924 2.956510 -2.066574 63 60 55
4.128677 2.957913 -2.066878 81 66 61
4.170413 4.563969 6.348854 52 49 44
4.129484 2.958377 -2.066714 227 200 205
4.129586 2.958338 -2.067268 24 19 23
4.130019 2.956941 -2.066469 181 178 185
4.129341 2.958267 -2.066638 250 218 221
3.686964 1.585048 0.077513 240 215 218
4.866368 3.963483 9.321749 26 22 21
4.128833 2.956489 -2.067088 127 130 135
4.129891 2.955815 -2.066591 145 146 141
4.223387 11.040162 14.666659 58 54 51
3.686641 1.584723 0.078045 119 116 101
4.128554 2.957391 -2.066878 36 31 28
4.129220 2.958252 -2.066466 249 225 225
3.687113 1.585288 0.077181 19 17 22
4.129331 2.957960 -2.066659 214 203 207
4.129217 2.958190 -2.066378 254 234 233
4.129878 2.956973 -2.066547 22 18 19
4.170413 4.563969 6.348854 52 49 44
4.129239 2.958212 -2.066447 255 240 240
4.130440 2.958400 -2.067435 241 239 244
11.410816 1.691569 12.380634 104 25 31
6.473861 2.911788 11.384150 126 133 139
3.922206 -0.605491 3.334807 152 135 119
3.921851 -0.604782 3.334104 114 46 45
11.419872 0.740173 12.441742 21 3 0
3.921546 -0.604037 3.333507 126 133 139
3.922083 -0.605234 3.334558 161 139 126
3.921667 -0.603440 3.333301 255 255 251
3.921700 -0.604337 3.333784 235 232 243
3.921514 -0.604515 3.333650 20 14 14
3.922500 -0.606023 3.335420 156 149 141
3.921824 -0.603565 3.333489 167 170 175
3.921511 -0.604103 3.333488 15 13 16
12.559442 -0.017847 10.003413 5 1 2
12.591211 0.719130 8.675615 156 149 141
3.922089 -0.605342 3.334330 172 145 124
3.921562 -0.603978 3.333501 214 218 229
11.732984 4.294858 10.599415 71 78 88
11.642443 3.497047 9.975099 18 14 13
3.921673 -0.604348 3.333754 38 38 38
3.999292 1.445233 0.696949 118 111 103
8.985000 4.686543 7.888123 255 255 253
11.555766 4.916068 12.561514 129 111 97
12.149647 0.782302 11.362413 152 135 119
3.922114 -0.605639 3.334628 184 171 165
3.922264 -0.605486 3.334910 118 111 103
3.922342 -0.605810 3.335095 146 132 121
3.921572 -0.602935 3.332886 142 142 140
3.999286 1.445559 0.696719 125 112 104
11.835230 4.958470 10.409018 95 93 98
11.643805 0.956901 11.068747 19 10 5
3.921674 -0.604437 3.333786 144 138 140
3.922195 -0.605191 3.334737 4 2 5
3.921714 -0.604582 3.333882 243 237 239
11.356544 0.993732 12.337615 26 6 5
3.921707 -0.604577 3.333867 254 245 248
11.964353 2.006027 10.622670 59 54 58
12.560594 0.058208 9.801111 157 143 132
3.922120 -0.604468 3.334347 255 255 253
3.921552 -0.604199 3.333576 129 138 147
3.921552 -0.604199 3.333576 129 138 147
3.921894 -0.604435 3.334089 105 92 84
3.921670 -0.604510 3.333807 208 197 205
11.508152 0.265032 12.596692 39 20 16
3.922265 -0.605536 3.334910 106 104 105
12.273305 0.771017 9.275882 142 132 123
3.922162 -0.604895 3.334635 122 111 105
3.922313 -0.605425 3.334995 21 20 25
11.419751 5.035550 10.916654 23 13 11
9.518408 -3.550042 9.754388 18 16 17
9.055585 0.670424 13.393472 98 78 79
5.618954 1.751792 8.301527 125 134 141
3.921661 -0.604510 3.333799 24 13 19
12.577587 0.200251 11.240893 125 112 104
3.921785 -0.604390 3.333911 243 242 248
3.921703 -0.604439 3.333818 255 253 255
12.116746 2.220905 10.053517 23 22 27
3.921515 -0.604613 3.333702 155 152 147
3.921511 -0.604103 3.333488 15 13 16
3.921558 -0.604269 3.333608 19 22 31
3.921841 -0.603448 3.333410 216 218 213
12.286907 0.503170 10.387587 136 122 113
3.921856 -0.604494 3.334034 135 117 113
11.564832 0.136629 12.589986 121 107 104
9.534672 -3.470702 9.767403 9 5 4
3.999364 1.444845 0.696677 29 16 10
3.921579 -0.603975 3.333511 167 148 152
3.921699 -0.602835 3.331110 216 204 216
3.922310 -0.605502 3.335003 117 117 119
3.922378 -0.604872 3.335159 89 88 84
11.304954 4.705015 10.324582 33 25 22
3.922073 -0.605306 3.334553 135 118 111
11.912706 1.820360 9.715175 91 82 85
3.921253 -0.602686 3.330148 69 68 63
3.921728 -0.604597 3.333915 150 141 146
3.921662 -0.604241 3.333707 215 214 222
3.921786 -0.604436 3.333931 252 250 255
3.922113 -0.605981 3.334708 18 16 17
3.921581 -0.604351 3.333661 219 208 214
9.534672 -3.470702 9.767403 9 5 4
12.248363 2.149157 10.073500 117 117 119
3.999364 1.444845 0.696677 29 16 10
4.794022 1.213568 4.614459 3 7 16
11.727369 0.966636 11.160178 22 17 13
3.921525 -0.604527 3.333672 19 17 20
8.886851 1.846940 12.810823 251 244 251
9.320216 4.719529 8.509728 252 253 248
3.922137 -0.604836 3.334589 23 13 11
3.921830 -0.603400 3.333369 227 229 228
3.922342 -0.605810 3.335095 146 132 121
11.286096 0.866000 12.402144 26 11 6
3.921859 -0.603540 3.333488 159 164 168
3.921786 -0.604436 3.333931 252 250 255
12.062427 1.872958 10.153395 21 19 22
11.964353 2.006027 10.622670 59 54 58
3.921689 -0.604516 3.333827 28 18 26
11.614909 0.582904 12.471851 146 127 120
11.295642 4.456042 9.406544 195 202 212
3.922347 -0.605826 3.335104 150 136 125
3.921663 -0.604563 3.333811 188 163 167
4.014015 0.482844 2.669806 255 244 248
3.921532 -0.604176 3.333553 239 238 246
10.153017 3.560873 12.366400 127 110 103
3.921571 -0.604045 3.333536 224 228 237
3.921525 -0.603960 3.333456 231 241 250
9.396094 4.419440 6.948150 246 245 241
3.921730 -0.604676 3.333927 240 225 222
12.125922 2.666246 9.809963 108 107 112
3.921864 -0.603498 3.333462 226 228 225
11.333069 4.706533 10.514131 122 111 105
12.402093 0.686154 9.473536 141 128 119
3.921642 -0.603880 3.333558 56 46 44
9.588568 4.725927 8.170815 186 190 191
3.921788 -0.603281 3.333254 234 235 230
4.017084 0.471164 2.678606 252 246 246
12.024492 2.754338 10.102583 14 18 27
3.921516 -0.604157 3.333511 231 222 239
11.745553 3.872089 10.613806 5 3 6
9.563104 -3.410908 9.750406 154 144 132
3.921794 -0.604364 3.333910 87 89 104
12.560594 0.058208 9.801111 157 143 132
3.922447 -0.605100 3.335044 151 151 151
9.811442 4.681224 8.002874 236 237 232
3.921670 -0.604510 3.333807 208 197 205
3.921577 -0.604561 3.333733 235 219 219
3.922113 -0.605996 3.334706 149 140 125
9.734235 3.463431 6.618695 75 73 76
11.943500 1.750456 9.380987 109 94 97
3.921840 -0.603565 3.333496 254 254 252
3.921978 -0.604647 3.334274 133 120 111
3.921667 -0.604406 3.333772 212 205 212
3.921564 -0.604569 3.333728 7 5 8
3.922237 -0.605631 3.334888 3 1 4
3.922350 -0.605602 3.335076 109 94 97
3.921517 -0.604313 3.333576 14 14 16
3.922068 -0.605344 3.334557 61 20 24
3.921652 -0.604326 3.333723 208 203 207
3.922240 -0.605158 3.334810 116 112 113
3.921711 -0.603987 3.333678 9 9 11
3.921589 -0.604079 3.333570 230 229 235
9.733346 3.465341 6.211330 76 75 80
3.921706 -0.604078 3.333703 7 6 11
3.921653 -0.604656 3.333887 255 226 229
3.921701 -0.604232 3.333752 204 210 222
3.921688 -0.604508 3.333824 24 17 24
3.921961 -0.605080 3.334347 127 124 109
3.921730 -0.604676 3.333927 240 225 222
3.921815 -0.603403 3.333361 140 143 148
3.921519 -0.604539 3.333663 145 140 137
3.922257 -0.605397 3.334886 147 148 152
3.922400 -0.605165 3.334976 3 1 2
3.921803 -0.604745 3.334033 23 17 21
9.750455 -1.144846 9.724442 255 239 213
3.921944 -0.604506 3.334188 67 58 51
9.381534 4.445238 7.029011 47 40 47
3.921600 -0.604086 3.333240 11 9 14
9.739615 -1.477115 9.623428 52 27 22
3.921746 -0.604468 3.333894 255 252 255
12.282201 0.684438 9.891477 146 133 124
11.583903 3.078340 10.358751 7 2 6
3.921516 -0.604157 3.333511 231 222 239
9.341851 4.456589 7.089930 249 250 245
3.921499 -0.604105 3.333472 246 243 252
3.921707 -0.602530 3.330765 50 37 47
3.922293 -0.604809 3.334716 28 27 33
3.922248 -0.604978 3.334794 99 94 88
3.922447 -0.605100 3.335044 151 151 151
3.921532 -0.604176 3.333553 239 238 246
9.707571 3.532897 6.207687 9 7 8
12.019556 2.780423 10.228264 21 24 33
11.610326 4.836914 11.470480 31 12 6
3.922237 -0.605631 3.334888 3 1 4
3.922218 -0.605001 3.334750 134 137 146
21.931913 3.019587 20.119316 130 116 107
11.370963 4.034541 9.653501 194 198 207
9.814243 4.658275 8.368376 239 241 238
3.922165 -0.605005 3.334672 21 17 18
3.921786 -0.604589 3.333969 248 237 241
3.921654 -0.602768 3.332492 136 136 136
3.922345 -0.605595 3.335062 3 0 2
3.921702 -0.603042 3.333026 226 227 221
3.922323 -0.604843 3.334778 245 246 241
9.343730 4.689548 7.944472 250 249 245
3.921827 -0.603549 3.333479 147 150 155
9.032836 3.583659 12.313832 147 143 142
3.921731 -0.604074 3.333740 103 95 92
12.034784 4.183509 9.781081 128 127 125
9.552296 -3.468171 9.853718 161 151 141
3.922241 -0.605279 3.334833 3 2 7
3.921529 -0.604166 3.333536 234 233 241
3.921623 -0.603021 3.332972 238 239 233
3.921926 -0.604468 3.334150 54 50 47
11.883351 2.141869 10.475653 3 3 5
11.530182 4.615895 11.256666 130 112 98
12.003982 3.801838 9.861401 68 71 78
10.104099 2.713387 8.714009 168 163 167
3.922469 -0.605776 3.335354 126 129 138
3.922299 -0.604813 3.334726 32 29 36
3.922299 -0.604813 3.334726 32 29 36
11.478801 4.678853 9.711898 87 83 82
11.818606 2.649806 10.349242 6 4 9
3.922296 -0.604773 3.334715 255 254 253
3.922302 -0.605316 3.334764 115 115 117
3.922407 -0.604298 3.333584 120 118 121
12.449315 0.792119 9.641662 43 33 31
11.266512 4.244208 9.823408 168 178 190
9.518408 -3.550042 9.754388 18 16 17
3.921957 -0.604522 3.334222 65 56 57
9.166552 3.654509 12.570656 136 131 128
3.922351 -0.604905 3.334860 160 164 165
11.684091 2.648019 10.755824 7 2 6
11.694712 4.140346 11.172572 136 124 110
9.700216 4.294444 6.259732 81 82 77
11.982407 4.096824 9.631554 201 201 189
3.921711 -0.603987 3.333678 9 9 11
3.921466 -0.603358 3.333127 7 0 0
11.626603 2.570600 10.446170 1 0 4
3.922305 -0.604795 3.334735 251 252 247
9.442945 -3.575107 9.874965 159 146 138
3.922282 -0.604736 3.334679 152 155 160
7.790995 3.513258 11.956266 10 9 17
11.885909 1.326885 10.851868 4 2 5
3.921547 -0.603950 3.333474 9 12 17
9.973272 4.753381 8.462055 242 243 245
3.921333 -0.600868 3.328467 4 2 3
3.922101 -0.604425 3.334189 242 240 241
11.387565 4.004013 9.646361 46 44 45
3.922243 -0.605338 3.334850 19 14 18
3.922475 -0.605113 3.335127 101 97 94
11.946488 3.094938 9.625923 141 139 142
3.921773 -0.604973 3.334392 249 236 243
3.921960 -0.604554 3.334236 76 65 61
3.921654 -0.604096 3.333632 185 179 179
12.009809 2.778741 10.218841 21 25 34
3.921522 -0.604283 3.333584 223 196 211
12.069864 3.788044 9.782321 54 54 62
9.596939 3.717413 6.774394 8 6 9
3.922218 -0.605001 3.334750 134 137 146
3.921669 -0.604517 3.333806 36 23 30
9.702101 4.216969 5.935193 94 90 89
11.449390 4.017630 10.116015 32 26 28
