ply
format ascii 1.0
element vertex 56
property float x
property float y
property float z
property uchar red
property uchar green
property uchar blue
end_header
-1.576723 -2.559501 3.037241 145 140 136
-1.576154 -2.559178 3.036990 18 11 5
-1.576307 -2.557977 3.036806 251 255 255
-1.576482 -2.559290 3.037131 158 153 147
-1.575900 -2.557924 3.036759 236 227 232
-1.575755 -2.557761 3.036027 240 231 234
-1.576154 -2.559178 3.036990 18 11 5
-1.575555 -2.559898 3.036695 86 83 78
-1.575677 -2.558139 3.037003 208 210 222
-1.575928 -2.558080 3.036533 252 231 236
-1.575841 -2.558229 3.036670 20 19 25
-1.576380 -2.559468 3.037072 13 7 7
-1.576462 -2.558234 3.036795 148 167 171
-1.576112 -2.560001 3.037417 151 148 143
-1.576568 -2.557950 3.036903 16 13 20
-1.575819 -2.558478 3.036594 6 5 10
-1.576485 -2.557995 3.036855 240 240 252
-1.575780 -2.558511 3.036588 13 7 9
-1.575882 -2.558167 3.036668 241 227 224
-1.576657 -2.559614 3.037214 23 13 11
-1.576285 -2.558136 3.036724 138 143 146
-1.576478 -2.558537 3.036759 200 207 173
-1.576604 -2.557980 3.036892 21 19 24
-1.575901 -2.558184 3.036529 244 223 222
-1.576005 -2.559835 3.037454 208 198 196
-1.576130 -2.559992 3.037425 15 10 14
-1.576569 -2.558282 3.036822 27 25 30
-1.576835 -2.558052 3.036935 156 182 199
-1.575892 -2.558112 3.036583 139 120 124
-1.576569 -2.558282 3.036822 27 25 30
-1.576409 -2.558594 3.036749 12 6 10
-1.576476 -2.558192 3.036810 108 103 110
-1.576675 -2.557678 3.037160 219 180 173
-1.575575 -2.558644 3.036658 76 71 68
-1.576219 -2.557623 3.036395 10 9 14
-1.576241 -2.557916 3.036824 150 140 148
-1.576623 -2.557958 3.036904 92 95 100
-1.576817 -2.557721 3.037192 194 170 158
-1.576246 -2.558211 3.036732 28 37 44
-1.576684 -2.557815 3.037071 126 66 66
-1.576568 -2.557778 3.037046 89 30 34
-1.576604 -2.557980 3.036892 21 19 24
-1.576474 -2.558131 3.036827 216 221 225
-1.576224 -2.558162 3.036729 61 56 63
-1.576236 -2.557888 3.036412 198 203 209
-1.576589 -2.558117 3.036874 62 60 63
-1.576620 -2.557846 3.037060 255 160 111
-1.576714 -2.557732 3.037085 125 54 68
-1.576624 -2.557747 3.037179 179 112 83
-1.576483 -2.557936 3.036887 213 221 223
-1.576782 -2.558035 3.037041 213 234 235
-1.576216 -2.558171 3.036758 170 164 176
-1.576814 -2.557732 3.037187 194 161 126
-1.576387 -2.558096 3.036795 194 201 211
-1.576814 -2.557732 3.037187 194 161 126
-1.576579 -2.557708 3.037158 64 29 27
