ply
format ascii 1.0
element vertex 342
property float x
property float y
property float z
property uchar red
property uchar green
property uchar blue
end_header
-6.304665 -11.409598 12.692025 137 131 119
-6.305086 -11.407698 12.691117 30 24 24
-6.305496 -11.414030 12.705732 22 17 21
-6.305029 -11.407831 12.691001 13 7 7
-6.305086 -11.407698 12.691117 30 24 24
-6.305573 -11.417502 12.708903 234 238 250
-6.305200 -11.419169 12.707891 159 154 160
-6.305628 -11.417575 12.710699 107 100 94
-6.305693 -11.416795 12.709935 116 115 113
-6.305574 -11.414789 12.708944 3 0 2
-6.305341 -11.419169 12.711062 15 15 17
-6.305587 -11.417521 12.708916 234 238 250
-6.304942 -11.408618 12.690798 15 12 7
-6.306436 -11.411887 12.700939 248 237 241
-6.301824 -11.408455 12.689621 150 146 143
-6.304932 -11.405268 12.698875 148 146 147
-6.307235 -11.408543 12.696639 180 194 197
-6.305328 -11.419115 12.710868 112 101 97
-6.305089 -11.419064 12.707829 180 175 182
-6.305089 -11.419064 12.707829 180 175 182
-6.306201 -11.408890 12.694178 255 251 202
-6.306288 -11.413173 12.700577 119 101 99
-6.305578 -11.415350 12.704831 16 15 21
-6.305492 -11.417980 12.708710 206 208 220
-6.305530 -11.418509 12.711895 102 95 89
-6.307612 -11.402385 12.693944 20 18 23
-6.301398 -11.410368 12.688717 139 138 133
-6.306270 -11.412625 12.700788 26 25 31
-6.307235 -11.408543 12.696639 180 194 197
-6.306075 -11.413673 12.700318 7 7 9
-6.306495 -11.411649 12.701075 250 245 249
-6.301339 -11.410462 12.688865 135 134 130
-6.305364 -11.418610 12.712706 9 8 6
-6.305514 -11.417619 12.709206 16 14 19
-6.307142 -11.409933 12.698183 158 180 193
-6.306492 -11.411492 12.701043 253 243 244
-6.304964 -11.419758 12.707490 81 71 72
-6.307280 -11.408371 12.696571 203 216 225
-6.304733 -11.419894 12.712052 7 0 0
-6.305609 -11.416757 12.706724 229 224 230
-6.304901 -11.419897 12.707585 2 3 8
-6.305445 -11.418001 12.708615 216 214 227
-6.306860 -11.404032 12.695724 190 119 91
-6.305319 -11.418289 12.708562 25 18 25
-6.305565 -11.419204 12.707785 247 236 232
-6.305783 -11.414555 12.705762 220 215 219
-6.305334 -11.407069 12.702057 87 79 76
-6.305103 -11.419403 12.711619 14 9 13
-6.305587 -11.417521 12.708916 234 238 250
-6.304733 -11.419894 12.712052 7 0 0
-6.305624 -11.415426 12.705346 235 230 236
-6.307135 -11.408636 12.698356 167 184 192
-6.305955 -11.413903 12.700406 10 1 2
-6.305963 -11.413823 12.700469 6 2 3
-6.306894 -11.409210 12.698714 173 173 175
-6.304709 -11.420322 12.707938 168 141 132
-6.305568 -11.417424 12.708750 229 222 229
-6.306800 -11.409979 12.698504 184 182 183
-6.305609 -11.416757 12.706724 229 224 230
-6.305334 -11.407069 12.702057 87 79 76
-6.305568 -11.417424 12.708750 229 222 229
-6.305423 -11.417695 12.706209 236 217 219
-6.305285 -11.419100 12.711432 136 122 111
-6.305429 -11.419141 12.707905 232 216 219
-6.306473 -11.411328 12.701231 31 24 31
-6.308018 -11.406347 12.695562 241 255 255
-6.305243 -11.417436 12.706686 248 239 244
-6.305882 -11.415035 12.708200 106 101 105
-6.305548 -11.418300 12.711735 7 3 4
-6.306907 -11.410101 12.698585 47 38 39
-6.305921 -11.413860 12.700289 131 127 126
-6.307706 -11.407112 12.696296 218 236 255
-6.305504 -11.419790 12.713192 99 85 84
-6.305608 -11.416456 12.706482 238 231 238
-6.305941 -11.414648 12.708612 10 8 11
-6.305441 -11.416316 12.705090 35 22 29
-6.304234 -11.413749 12.700349 155 146 141
-6.305457 -11.416670 12.706722 203 198 204
-6.305655 -11.415250 12.704906 148 154 166
-6.304994 -11.419249 12.708696 122 45 51
-6.303444 -11.416423 12.696125 75 72 65
-6.307356 -11.413460 12.701417 163 149 149
-6.305370 -11.410573 12.704257 9 5 4
-6.305448 -11.414105 12.705899 253 253 253
-6.306283 -11.413516 12.700562 113 95 93
-6.305364 -11.418610 12.712706 9 8 6
-6.307498 -11.402996 12.693961 165 192 213
-6.305014 -11.419476 12.711700 158 148 139
-6.305429 -11.418631 12.712021 113 100 94
-6.303274 -11.417384 12.697516 68 65 60
-6.305147 -11.408195 12.703212 18 11 5
-6.305664 -11.415814 12.707471 9 8 16
-6.305638 -11.415484 12.705623 208 197 205
-6.305512 -11.418376 12.711946 67 59 48
-6.305664 -11.418144 12.708553 245 233 237
-6.306391 -11.400645 12.693849 100 101 105
-6.307124 -11.409982 12.698419 192 201 208
-6.304760 -11.420138 12.707685 83 55 52
-6.305548 -11.418300 12.711735 7 3 4
-6.305436 -11.414035 12.705809 255 254 255
-6.305147 -11.408195 12.703212 18 11 5
-6.306576 -11.411274 12.701220 246 231 234
-6.306894 -11.409210 12.698714 173 173 175
-6.305891 -11.399321 12.692916 110 108 113
-6.307414 -11.421224 12.709035 149 123 122
-6.305914 -11.409864 12.701759 180 174 178
-6.301824 -11.408455 12.689621 150 146 143
-6.305274 -11.419288 12.711126 13 4 0
-6.305783 -11.414555 12.705762 220 215 219
-6.305530 -11.415490 12.707645 8 6 9
-6.307515 -11.402949 12.693987 10 8 19
-6.305207 -11.411231 12.688214 38 37 32
-6.305644 -11.415200 12.708320 129 127 130
-6.305268 -11.406401 12.697684 14 11 20
-6.307305 -11.403067 12.694793 170 177 170
-6.305480 -11.416138 12.705000 205 184 193
-6.305444 -11.416692 12.706851 19 17 20
-6.307104 -11.403771 12.695713 205 193 203
-6.307070 -11.409279 12.698788 245 248 253
-6.305413 -11.407042 12.702012 5 0 4
-6.307238 -11.413832 12.701256 255 243 239
-6.305581 -11.416492 12.706798 62 53 58
-6.305833 -11.414624 12.705844 245 240 244
-6.307615 -11.407227 12.696777 22 20 25
-6.307285 -11.404851 12.695769 140 71 64
-6.305368 -11.417275 12.706322 61 55 57
-6.306759 -11.413185 12.701206 252 234 224
-6.306796 -11.409841 12.699220 199 213 226
-6.306598 -11.411216 12.701198 235 220 223
-6.305148 -11.418854 12.707925 208 203 209
-6.305453 -11.416209 12.704984 48 33 40
-6.304535 -11.410145 12.694279 105 97 94
-6.305574 -11.415599 12.705009 51 44 51
-6.305124 -11.419467 12.711245 143 131 119
-6.305274 -11.419288 12.711126 13 4 0
-6.305215 -11.419377 12.711622 151 145 147
-6.305655 -11.417317 12.709032 226 230 242
-6.302152 -11.406814 12.689347 6 0 2
-6.305644 -11.415200 12.708320 129 127 130
-6.307409 -11.414171 12.701332 156 138 138
-6.305622 -11.415900 12.707559 202 209 217
-6.306907 -11.410101 12.698585 47 38 39
-6.307246 -11.409923 12.695878 21 19 24
-6.304061 -11.419927 12.707090 250 243 227
-6.306966 -11.410203 12.698584 229 239 241
-6.305586 -11.418321 12.711994 11 6 2
-6.303965 -11.407958 12.690971 5 1 2
-6.306958 -11.408932 12.698843 167 161 161
-6.305604 -11.419142 12.707786 176 160 160
-6.305444 -11.416692 12.706851 19 17 20
-6.305670 -11.418605 12.711222 13 11 14
-6.301876 -11.408540 12.689710 150 146 143
-6.306986 -11.411932 12.700880 223 206 214
-6.305710 -11.415841 12.707347 14 13 18
-6.305681 -11.414809 12.708873 103 102 100
-6.304669 -11.419604 12.709085 88 21 28
-6.307369 -11.402905 12.693866 124 45 90
-6.305272 -11.417976 12.707485 229 214 221
-6.305429 -11.416404 12.708248 140 143 158
-6.306916 -11.410226 12.698585 63 61 64
-6.305632 -11.415798 12.707124 179 177 180
-6.305520 -11.420095 12.713460 109 92 82
-6.306514 -11.411100 12.701061 245 230 233
-6.306950 -11.410182 12.697175 138 161 153
-6.305287 -11.419360 12.711238 156 145 141
-6.307615 -11.407227 12.696777 22 20 25
-6.305296 -11.417556 12.706347 36 30 32
-6.305221 -11.408513 12.693122 137 132 128
-6.307328 -11.408084 12.697188 106 107 111
-6.308038 -11.406283 12.695456 135 162 181
-6.305632 -11.415798 12.707124 179 177 180
-6.304970 -11.418497 12.706034 148 139 142
-6.305483 -11.416248 12.705088 202 182 191
-6.303764 -11.415636 12.701824 122 111 105
-6.303181 -11.417846 12.698213 52 49 44
-6.307533 -11.402659 12.693928 19 6 15
-6.305694 -11.407236 12.697915 238 196 200
-6.305634 -11.415117 12.709170 105 106 111
-6.305875 -11.398429 12.692449 67 67 69
-6.305542 -11.416551 12.706572 246 241 247
-6.307165 -11.405048 12.695808 171 83 79
-6.304523 -11.399461 12.691751 68 67 81
-6.305833 -11.414624 12.705844 245 240 244
-6.306100 -11.414628 12.707949 115 107 104
-6.305928 -11.414917 12.708394 80 75 72
-6.305296 -11.417556 12.706347 36 30 32
-6.307322 -11.413825 12.701311 158 144 141
-6.305817 -11.414492 12.705727 238 233 239
-6.303181 -11.417846 12.698213 52 49 44
-6.306835 -11.403932 12.695533 128 76 52
-6.305669 -11.415170 12.704935 149 157 170
-6.305544 -11.417432 12.709167 63 66 73
-6.303965 -11.407958 12.690971 5 1 2
-6.306986 -11.411932 12.700880 223 206 214
-6.304026 -11.414526 12.700567 78 71 65
-6.305669 -11.415170 12.704935 149 157 170
-6.306976 -11.410658 12.696760 16 15 13
-6.305094 -11.419889 12.710519 86 71 66
-6.305743 -11.415793 12.707473 94 94 102
-6.305963 -11.409659 12.701430 213 208 214
-6.307706 -11.407112 12.696296 218 236 255
-6.307110 -11.405223 12.695996 255 150 95
-6.304961 -11.411804 12.704238 29 27 28
-6.307414 -11.402600 12.694089 47 53 69
-6.307477 -11.402594 12.693961 115 24 57
-6.307273 -11.403212 12.694953 192 164 142
-6.307347 -11.420854 12.709097 166 135 140
-6.307626 -11.404638 12.695960 255 239 244
-6.306802 -11.410071 12.698487 158 154 155
-6.307060 -11.410527 12.696606 13 11 14
-6.305641 -11.415925 12.707132 171 166 170
-6.304617 -11.420503 12.707978 81 24 30
-6.307397 -11.407761 12.697409 201 217 217
-6.305847 -11.415081 12.708213 119 117 120
-6.307449 -11.402619 12.694044 155 164 171
-6.306950 -11.410182 12.697175 138 161 153
-6.307921 -11.406039 12.693416 28 26 29
-6.305559 -11.416397 12.706615 215 218 227
-6.305108 -11.405671 12.698685 120 119 124
-6.307266 -11.408743 12.697025 109 106 113
-6.307194 -11.408955 12.697748 147 160 169
-6.304374 -11.399820 12.691758 52 62 89
-6.305785 -11.407257 12.697922 125 122 131
-6.305494 -11.413770 12.705598 120 101 105
-6.305586 -11.418321 12.711994 11 6 2
-6.305108 -11.405671 12.698685 120 119 124
-6.305785 -11.407257 12.697922 125 122 131
-6.307570 -11.405099 12.696011 246 202 199
-6.307709 -11.404882 12.696016 109 86 94
-6.305951 -11.413953 12.705580 99 103 106
-6.305646 -11.418245 12.711668 89 81 78
-6.306202 -11.412958 12.706538 52 42 40
-6.307027 -11.403950 12.695892 113 96 104
-6.301366 -11.410388 12.688894 127 123 120
-6.307211 -11.409117 12.697390 196 209 217
-6.307397 -11.408593 12.696386 20 18 21
-6.305559 -11.416397 12.706615 215 218 227
-6.307392 -11.404700 12.695943 133 47 56
-6.307247 -11.408826 12.696906 170 178 191
-6.307264 -11.403278 12.694940 193 166 137
-6.304282 -11.400273 12.692066 90 93 108
-6.307457 -11.403768 12.695692 227 211 221
-6.305647 -11.418131 12.711590 24 14 12
-6.305875 -11.398429 12.692449 67 67 69
-6.306378 -11.399097 12.691366 170 148 160
-6.305796 -11.407190 12.697934 46 31 38
-6.307277 -11.403245 12.694515 44 32 34
-6.307397 -11.408593 12.696386 20 18 21
-6.307921 -11.406039 12.693416 28 26 29
-6.304664 -11.409519 12.693607 94 86 83
-6.305874 -11.415609 12.708234 10 8 11
-6.305586 -11.418321 12.711994 11 6 2
-6.307290 -11.403129 12.694718 142 102 92
-6.306802 -11.404101 12.695623 215 219 228
-6.306919 -11.410175 12.698374 116 138 152
-6.307347 -11.403231 12.694262 232 237 255
-6.307264 -11.403338 12.694372 62 47 54
-6.306950 -11.410182 12.697175 138 161 153
-6.307389 -11.402744 12.694172 158 162 171
-6.306469 -11.411482 12.701325 39 36 45
-6.305402 -11.417169 12.706383 60 50 51
-6.305257 -11.405542 12.698433 2 1 9
-6.307478 -11.403607 12.695090 122 137 144
-6.306743 -11.413203 12.701162 255 245 240
-6.305703 -11.414977 12.708200 85 81 82
-6.304675 -11.419834 12.711930 132 122 113
-6.306856 -11.413298 12.701149 237 216 213
-6.305586 -11.415219 12.705295 10 3 10
-6.300631 -11.406010 12.696819 15 15 27
-6.307213 -11.408432 12.698238 131 148 155
-6.305539 -11.414830 12.708603 59 55 52
-6.307491 -11.406636 12.697171 195 212 222
-6.307144 -11.405167 12.695911 191 78 60
-6.307303 -11.403338 12.694467 67 50 60
-6.305971 -11.413805 12.700397 133 129 130
-6.307440 -11.404475 12.695856 113 46 55
-6.305254 -11.405884 12.698501 17 16 22
-6.305747 -11.407112 12.698021 139 100 103
-6.305630 -11.409932 12.701655 232 232 234
-6.305448 -11.407130 12.698816 10 9 15
-6.305440 -11.417557 12.709269 136 128 126
-6.305692 -11.416003 12.707036 115 108 115
-6.302069 -11.400856 12.688189 189 205 218
-6.307269 -11.403402 12.694368 243 255 255
-6.304522 -11.409028 12.700807 249 255 255
-6.307477 -11.402755 12.693983 214 159 188
-6.306771 -11.404231 12.695860 127 61 35
-6.305311 -11.406638 12.697795 158 143 166
-6.305923 -11.408946 12.694176 148 135 118
-6.307419 -11.404286 12.695785 125 66 60
-6.307114 -11.405431 12.696359 255 140 96
-6.307251 -11.403210 12.694473 44 32 34
-6.304886 -11.419338 12.708649 27 0 0
-6.305333 -11.419161 12.711421 138 129 122
-6.305511 -11.419949 12.713370 25 14 12
-6.307381 -11.402508 12.694293 113 128 149
-6.307449 -11.403134 12.694114 86 17 61
-6.306483 -11.399448 12.691723 47 50 57
-6.307349 -11.402899 12.694106 199 171 196
-6.307378 -11.403154 12.694256 175 186 208
-6.306333 -11.399396 12.691792 0 0 9
-6.305199 -11.416969 12.704543 250 220 220
-6.307465 -11.407576 12.697369 203 203 205
-6.305630 -11.409932 12.701655 232 232 234
-6.307440 -11.404475 12.695856 113 46 55
-6.307467 -11.404935 12.695882 168 66 77
-6.307280 -11.403107 12.694758 181 162 145
-6.307194 -11.405924 12.696635 255 208 185
-6.307330 -11.403229 12.694574 214 218 219
-6.307089 -11.405376 12.696157 185 84 76
-6.305508 -11.415981 12.705320 223 212 216
-6.305277 -11.405925 12.698541 12 9 18
-6.307322 -11.403132 12.694301 127 117 144
-6.306263 -11.399469 12.692714 73 72 77
-6.307080 -11.404547 12.695718 108 22 35
-6.307314 -11.402948 12.694279 218 99 153
-6.307211 -11.414012 12.701048 135 119 120
-6.307042 -11.404234 12.695728 255 247 245
-6.307194 -11.408955 12.697748 147 160 169
-6.305769 -11.407244 12.697843 46 40 50
-6.305914 -11.407190 12.697916 126 102 100
-6.307381 -11.403131 12.694754 181 174 168
-6.307480 -11.405106 12.695932 185 68 77
-6.305694 -11.407206 12.697977 223 144 150
-6.307289 -11.413900 12.701392 159 144 141
-6.307383 -11.403141 12.694178 31 31 41
-6.307431 -11.404169 12.695837 222 185 179
-6.307338 -11.403094 12.694771 146 104 82
-6.307495 -11.404354 12.695825 255 229 219
-6.305966 -11.414955 12.708811 60 56 57
-6.307305 -11.407680 12.698083 184 192 203
-6.307249 -11.403201 12.695003 78 46 49
-6.307480 -11.405106 12.695932 185 68 77
-6.307334 -11.406177 12.696844 196 118 105
-6.305078 -11.398088 12.692243 2 15 23
-6.306257 -11.400315 12.691668 63 64 85
-6.307352 -11.402688 12.694003 202 96 136
-6.305189 -11.415545 12.704158 27 21 25
-6.304476 -11.420107 12.709323 30 18 18
-6.307714 -11.405102 12.696177 253 254 249
-6.305795 -11.407959 12.698522 12 9 16
-6.307264 -11.403278 12.694940 193 166 137
