ply
format ascii 1.0
element vertex 217
property float x
property float y
property float z
property uchar red
property uchar green
property uchar blue
end_header
-8.990447 -15.451224 17.794259 151 148 143
-8.990599 -15.451172 17.794217 151 147 148
-8.989258 -15.438673 17.787729 237 227 228
-8.992645 -15.446450 17.791254 13 11 14
-8.989258 -15.438673 17.787729 237 227 228
-8.990303 -15.451196 17.794356 15 7 4
-8.992250 -15.446909 17.790453 23 13 11
-9.001816 -15.447515 17.798879 91 11 38
-8.989104 -15.453697 17.791242 13 13 15
-8.990447 -15.451224 17.794259 151 148 143
-8.992624 -15.446382 17.791307 13 8 12
-8.989848 -15.438151 17.788748 247 240 248
-8.990599 -15.451172 17.794217 151 147 148
-8.992250 -15.446909 17.790453 23 13 11
-8.990566 -15.440166 17.786819 8 2 4
-9.003281 -15.448722 17.800024 174 154 153
-9.003283 -15.448658 17.800143 164 61 106
-9.003306 -15.448556 17.800109 118 18 56
-9.003325 -15.448012 17.800466 47 17 25
-8.987559 -15.437769 17.786671 241 227 224
-8.991764 -15.438334 17.789430 207 219 219
-8.992624 -15.446382 17.791307 13 8 12
-9.002393 -15.451380 17.797962 34 25 20
-9.002985 -15.447742 17.800365 177 155 158
-9.005004 -15.445707 17.803671 35 26 17
-9.001420 -15.450761 17.797332 72 61 57
-8.986625 -15.438948 17.785496 149 148 153
-9.001884 -15.447570 17.799071 154 136 134
-9.002565 -15.445303 17.794929 31 23 20
-8.986752 -15.439104 17.785450 151 147 146
-8.992123 -15.438500 17.789684 169 187 187
-9.019641 -15.461622 17.831626 232 233 227
-8.989641 -15.444879 17.789812 145 138 132
-8.986826 -15.438841 17.785487 6 5 10
-8.991610 -15.439621 17.788143 216 234 248
-8.989529 -15.438671 17.787077 189 196 214
-8.989166 -15.453613 17.791528 145 144 142
-8.997331 -15.444085 17.805256 12 7 11
-8.991077 -15.438816 17.788754 194 201 211
-8.997119 -15.442915 17.800822 50 50 52
-8.989785 -15.438304 17.788803 235 221 234
-8.989822 -15.438350 17.787706 35 31 30
-8.988198 -15.437318 17.788259 236 227 232
-8.989795 -15.448745 17.787286 91 87 84
-8.984726 -15.445758 17.784877 86 83 78
-8.990303 -15.451196 17.794356 15 7 4
-8.988581 -15.439333 17.793472 218 217 213
-9.001872 -15.445927 17.806090 13 11 12
-8.994006 -15.441942 17.788425 20 16 17
-8.993268 -15.451352 17.789677 64 60 57
-8.986493 -15.438839 17.785242 13 7 9
-9.003313 -15.448674 17.800096 129 33 70
-8.991658 -15.439190 17.788023 27 25 30
-8.989703 -15.452583 17.792329 149 145 142
-8.987305 -15.438242 17.786296 141 132 133
-8.990456 -15.437856 17.788856 163 177 180
-9.003276 -15.448882 17.799945 168 155 147
-9.003226 -15.448965 17.800175 162 148 147
-8.991077 -15.438816 17.788754 194 201 211
-8.990401 -15.437889 17.789012 63 53 61
-8.994977 -15.439760 17.794141 194 170 158
-9.001925 -15.447972 17.798997 170 139 145
-8.989385 -15.438590 17.787567 46 29 35
-9.002763 -15.451340 17.797930 23 18 15
-8.991077 -15.438816 17.788754 194 201 211
-8.992546 -15.438745 17.789829 21 19 24
-8.991058 -15.438947 17.788030 163 190 199
-8.992280 -15.439250 17.788397 161 185 195
-8.991683 -15.438414 17.789220 240 240 252
-8.989740 -15.444876 17.789877 18 11 5
-9.002642 -15.451408 17.797983 21 13 10
-8.991285 -15.440359 17.786997 9 9 11
-8.991728 -15.442798 17.789180 255 251 211
-9.003503 -15.448034 17.800594 55 15 26
-9.002766 -15.459258 17.797219 55 48 40
-8.990789 -15.446155 17.789852 13 7 7
-8.989555 -15.438690 17.787414 27 24 31
-9.003481 -15.448688 17.800344 182 150 155
-8.991683 -15.439704 17.789236 198 203 209
-9.003670 -15.448073 17.800744 54 8 19
-9.003226 -15.448965 17.800175 162 148 147
-8.993155 -15.438869 17.792324 80 20 28
-8.991419 -15.449998 17.788458 74 73 69
-8.995255 -15.439990 17.791261 24 19 26
-8.989996 -15.438047 17.789135 245 224 229
-8.991683 -15.439704 17.789236 198 203 209
-9.005921 -15.442094 17.799930 9 9 11
-9.002088 -15.448150 17.799125 69 9 34
-8.991429 -15.439034 17.788198 176 193 201
-8.990206 -15.438455 17.787745 138 143 146
-9.003670 -15.448073 17.800744 54 8 19
-8.988866 -15.439467 17.786086 9 7 12
-9.003585 -15.448038 17.798121 21 11 9
-8.987096 -15.436966 17.785085 243 224 220
-8.994290 -15.443094 17.802874 80 73 65
-9.002204 -15.448169 17.799125 167 147 148
-8.992546 -15.438745 17.789829 21 19 24
-8.992339 -15.438553 17.789887 16 13 20
-8.993378 -15.440039 17.798918 9 3 3
-9.003262 -15.447976 17.800491 184 136 150
-8.984110 -15.445407 17.784592 74 71 66
-8.988714 -15.439527 17.793645 204 200 199
-9.001312 -15.457923 17.795921 63 56 50
-8.994936 -15.439787 17.794072 194 161 126
-8.990953 -15.451370 17.794699 121 114 106
-9.002477 -15.448338 17.799319 160 147 141
-8.992644 -15.438631 17.789888 92 95 100
-8.993470 -15.439135 17.792524 131 31 43
-9.005551 -15.445598 17.804008 70 62 51
-8.994336 -15.440640 17.789273 204 217 233
-8.991090 -15.440699 17.788646 179 198 192
-9.001711 -15.446593 17.807036 63 61 62
-9.002636 -15.448400 17.799458 134 113 112
-9.001711 -15.446593 17.807036 63 61 62
-8.996865 -15.444066 17.802520 93 106 115
-8.996841 -15.443662 17.802066 97 113 136
-8.999909 -15.446350 17.808909 20 17 10
-8.989864 -15.438699 17.788033 170 164 176
-8.987589 -15.435681 17.784570 255 247 251
-8.991658 -15.439190 17.788023 27 25 30
-8.993613 -15.438908 17.789635 156 182 199
-9.001925 -15.447972 17.798997 170 139 145
-8.988611 -15.438004 17.787659 238 226 228
-9.002592 -15.449303 17.796176 146 138 135
-8.999840 -15.446384 17.808894 94 87 77
-8.997054 -15.442899 17.800716 50 50 52
-8.991592 -15.442761 17.789175 255 241 214
-8.991944 -15.438653 17.789500 239 246 254
-8.995247 -15.441617 17.797930 159 188 218
-8.987316 -15.437196 17.785129 244 223 222
-8.996865 -15.444066 17.802520 93 106 115
-8.991705 -15.438091 17.790187 186 198 198
-8.991658 -15.439190 17.788023 27 25 30
-8.994936 -15.439787 17.794072 194 161 126
-8.990852 -15.437614 17.789662 161 172 174
-9.002737 -15.451389 17.798035 118 111 103
-8.991517 -15.443050 17.789434 255 254 227
-8.989310 -15.453720 17.791536 10 8 11
-9.002332 -15.447977 17.799012 163 149 146
-8.994872 -15.439206 17.790585 184 208 208
-8.990558 -15.451198 17.794322 15 10 14
-8.995649 -15.438689 17.792011 171 199 213
-8.993983 -15.438972 17.792657 125 54 68
-8.997119 -15.442915 17.800822 50 50 52
-8.993804 -15.439247 17.792746 144 80 81
-8.988336 -15.439282 17.792400 159 168 177
-8.993247 -15.438862 17.792470 140 100 92
-8.993983 -15.438972 17.792657 125 54 68
-8.993129 -15.438196 17.790713 79 56 62
-8.991089 -15.445699 17.790348 45 43 44
-8.993706 -15.438766 17.791785 255 231 232
-8.993645 -15.439442 17.792456 153 72 78
-9.001579 -15.444286 17.799587 15 13 16
-8.992774 -15.438833 17.791877 250 249 255
-9.007717 -15.442622 17.801136 9 4 0
-8.990456 -15.437856 17.788856 163 177 180
-8.990900 -15.437553 17.789832 221 232 234
-9.002738 -15.449570 17.796499 138 130 127
-8.989328 -15.453571 17.791356 144 143 141
-8.988611 -15.438004 17.787659 238 226 228
-9.003655 -15.448038 17.800707 54 8 19
-9.002332 -15.447977 17.799012 163 149 146
-8.987355 -15.437000 17.785733 255 245 242
-8.997064 -15.444360 17.800317 7 6 11
-8.993113 -15.439022 17.792314 89 30 34
-9.003655 -15.448038 17.800707 54 8 19
-8.990126 -15.438013 17.788881 56 55 63
-8.993676 -15.439167 17.792291 126 66 66
-8.993169 -15.439202 17.792292 255 158 119
-8.990389 -15.437814 17.788783 201 208 214
-9.003028 -15.448999 17.800073 174 167 159
-8.990828 -15.437335 17.789763 228 230 242
-8.987000 -15.436598 17.784421 245 219 218
-8.990853 -15.437482 17.789971 59 43 46
-8.994154 -15.439564 17.794044 92 56 58
-8.987024 -15.436973 17.784946 166 154 154
-8.993598 -15.439112 17.792684 136 72 70
-8.984400 -15.426454 17.772464 237 255 255
-8.996133 -15.438828 17.792771 24 18 30
-8.994048 -15.438471 17.792306 68 32 44
-8.994819 -15.443756 17.804379 67 63 60
-9.002706 -15.448307 17.799431 173 158 155
-9.003056 -15.447865 17.800325 107 22 45
-8.997232 -15.444411 17.803408 57 73 99
-9.005953 -15.441759 17.800547 93 88 84
-8.989846 -15.438514 17.787609 214 217 226
-8.993807 -15.438728 17.792005 139 68 84
-8.996922 -15.444728 17.803654 83 82 88
-8.997232 -15.444411 17.803408 57 73 99
-8.994190 -15.439444 17.793974 219 180 173
-8.993722 -15.439289 17.792336 255 241 243
-8.992511 -15.447366 17.790714 113 108 104
-8.993219 -15.439335 17.792252 192 86 70
-8.993169 -15.439202 17.792292 255 158 119
-9.001738 -15.447822 17.798867 52 21 27
-8.992692 -15.438140 17.790192 46 35 43
-8.994940 -15.440190 17.793672 250 245 249
-8.988265 -15.439793 17.792651 197 198 200
-8.993607 -15.440111 17.799083 65 60 56
-8.996303 -15.443505 17.801773 5 3 8
-8.992774 -15.438833 17.791877 250 249 255
-8.984510 -15.425471 17.770585 201 231 197
-9.003056 -15.447865 17.800325 107 22 45
-8.995038 -15.439593 17.794024 68 49 55
-8.992511 -15.447366 17.790714 113 108 104
-9.000069 -15.446525 17.809082 99 98 96
-8.993313 -15.439300 17.792224 255 160 111
-8.997041 -15.444355 17.803036 5 9 20
-9.000111 -15.446771 17.809251 18 14 15
-8.997007 -15.444282 17.802956 0 0 9
-8.993860 -15.438727 17.791942 255 249 245
-8.996117 -15.439442 17.793255 24 22 23
-8.992626 -15.438804 17.791794 190 201 203
-8.991973 -15.410114 17.765335 29 20 15
-8.995055 -15.439869 17.794198 137 111 84
-8.993499 -15.438950 17.791807 182 54 55
-8.992617 -15.438722 17.792758 8 8 20
