ply
format ascii 1.0
element vertex 1252
property float x
property float y
property float z
property uchar red
property uchar green
property uchar blue
end_header
2.006690 3.036321 6.297699 35 44 53
6.486740 1.488449 10.735478 237 227 228
2.584038 1.117557 9.928522 197 210 226
1.279136 2.888286 8.406479 230 253 255
-0.426623 4.237214 8.541708 52 50 51
2.386271 2.617490 7.290189 100 109 126
0.440968 3.830487 6.595559 78 65 57
1.339970 2.568198 8.548565 59 46 63
4.247788 4.095463 7.788099 83 74 69
3.229350 3.909463 7.073819 65 54 48
1.093118 2.781379 8.329327 14 12 15
-0.333526 2.791656 8.287061 131 118 112
6.560247 1.262151 10.785866 255 250 255
1.357628 3.025338 8.696534 183 200 230
5.944793 1.943109 10.454015 220 215 221
6.041327 2.404048 10.560764 222 221 226
3.531675 0.477644 24.088070 128 144 133
3.632770 1.418645 11.242410 255 251 254
1.299229 2.508523 8.455210 95 31 66
1.536049 3.707413 7.642213 8 8 10
1.661542 0.226557 1.528111 153 160 170
1.747880 3.935315 8.979483 95 96 101
4.347082 2.681286 8.025249 230 235 241
2.860151 -1.307146 7.313613 173 168 162
1.259714 2.780336 8.496806 77 88 106
4.367632 2.529364 8.905049 175 178 183
3.536469 1.585130 11.196496 252 241 245
-0.059774 1.029376 5.898336 145 131 130
1.379265 2.585421 8.634081 246 227 246
2.735235 2.662778 9.745983 73 56 64
3.557282 0.593362 11.329619 255 250 247
4.377441 2.731274 8.224636 77 67 65
3.206064 2.591367 7.019831 57 53 52
1.830122 2.778816 9.279493 143 32 51
1.475057 2.818749 8.469044 199 186 178
2.132202 -0.334095 8.938257 149 140 131
3.139638 0.689147 24.135713 217 242 203
2.306421 1.247613 9.738561 151 165 174
1.881266 -0.728512 4.918637 7 3 4
2.338460 -1.028477 8.045724 4 0 1
0.691784 1.189648 11.389732 195 198 205
1.217449 4.003717 6.091828 11 9 12
4.166180 2.575838 7.553314 42 41 47
0.872953 -4.587438 8.667611 91 88 81
3.563645 2.775592 10.651202 186 165 170
3.443055 1.326591 22.815182 163 182 176
1.403086 2.477989 8.726349 216 224 235
1.996206 2.454459 8.982689 251 171 138
3.851398 2.733283 9.801597 144 160 173
5.845583 3.022709 9.766467 118 104 104
3.131547 3.579932 6.947846 83 81 84
1.837150 3.414302 7.645294 68 66 69
2.318151 2.590260 7.146394 74 82 101
0.445881 0.527663 30.355318 138 143 137
2.231010 -1.318569 7.673681 7 0 0
3.206064 2.591367 7.019831 57 53 52
7.216331 0.312121 12.850826 157 138 132
1.476519 0.448784 1.513516 180 188 190
4.753667 0.091308 9.130495 105 100 96
3.521930 0.409212 11.961156 255 240 236
4.060528 1.213135 23.148405 219 240 233
2.323241 3.360671 6.942759 19 19 27
3.498974 1.774080 9.806646 230 219 225
2.623474 -0.871938 8.571771 94 85 78
1.772266 0.210816 1.750443 255 244 238
0.737152 0.548478 25.216869 155 177 139
0.034074 0.913756 5.314871 137 123 122
7.333983 0.351404 13.030191 255 243 240
6.521653 1.651358 10.731236 153 141 143
1.123905 2.695365 8.285015 175 196 201
4.228821 3.095362 9.078693 221 221 223
3.132907 1.293203 22.311689 237 254 248
1.123905 2.695365 8.285015 175 196 201
3.960047 0.071983 10.297787 16 16 18
3.983129 3.979537 7.458837 68 55 47
1.937597 1.956467 9.303770 172 182 194
4.347082 2.681286 8.025249 230 235 241
1.018109 2.249072 6.777754 13 11 14
1.677479 2.473418 8.991276 237 232 228
5.053994 3.605423 8.291125 14 12 13
4.326801 2.625264 7.893837 228 234 248
2.436703 0.663759 6.497042 172 172 182
1.625547 2.755543 8.791622 228 159 180
0.111805 4.199951 7.313572 14 10 11
2.816108 2.538277 9.500802 16 13 20
3.577883 2.725729 10.454291 80 77 84
1.757575 0.227824 1.709246 154 154 162
7.300522 0.574437 12.462216 255 248 246
1.302851 2.522585 8.405471 239 238 254
1.333252 0.400328 1.344793 13 13 15
1.551359 2.843209 8.563084 169 105 80
1.742855 2.508963 9.334194 64 42 45
1.091809 0.346101 25.508014 202 229 178
3.467802 0.146049 12.484488 129 114 109
2.342956 1.712528 9.552212 229 243 254
6.521653 1.651358 10.731236 153 141 143
1.975242 2.145933 5.180791 0 0 12
2.158002 0.166701 11.834147 215 236 195
6.020443 1.816829 10.457494 229 217 221
2.020984 2.101661 9.913538 214 218 227
5.794391 2.973410 9.406278 85 87 99
-0.425831 4.542088 12.438530 24 19 26
4.247788 4.095463 7.788099 83 74 69
3.526808 2.716555 10.248485 24 13 19
3.629275 0.228626 23.913742 129 143 107
1.664413 0.308659 2.269572 187 212 183
3.073499 0.270065 24.593579 224 250 185
1.774778 0.186749 1.764313 131 130 136
1.522380 0.348981 1.379740 59 42 35
1.576709 2.858117 8.530386 198 159 126
1.235463 3.650712 6.480406 57 47 45
6.312030 1.462592 10.337889 137 120 126
4.750164 2.277766 8.062825 93 94 98
1.576709 2.858117 8.530386 198 159 126
0.910058 0.213796 27.792893 143 144 139
0.468432 0.566960 24.244527 221 237 208
0.346411 2.509017 6.754735 10 5 11
1.592223 2.845906 8.586665 138 99 92
1.221986 2.672567 8.992837 195 204 221
2.342956 1.712528 9.552212 229 243 254
7.130687 0.402464 12.578329 255 235 236
3.083395 1.250948 24.401317 147 173 172
1.022037 0.651357 7.196696 220 223 232
2.306421 1.247613 9.738561 151 165 174
6.808419 2.038008 10.897963 192 189 196
1.836864 -1.165449 8.053664 13 9 10
1.616818 1.697584 9.369022 213 230 246
3.781902 1.540294 10.147803 234 225 230
2.176504 -0.928513 8.232881 153 146 140
7.090527 1.307644 11.133604 199 194 191
3.667167 2.154689 10.522988 255 247 246
1.616818 1.697584 9.369022 213 230 246
6.957949 2.930654 10.794963 232 230 235
0.991308 -3.526972 7.990389 103 102 97
2.971742 -3.591863 7.365674 12 12 12
2.486080 -2.793428 14.979198 3 0 0
2.929274 -2.763383 7.287026 140 136 133
6.823185 1.038307 11.265568 230 225 229
6.786718 2.915562 10.750238 158 158 156
2.486080 -2.793428 14.979198 3 0 0
6.882935 4.079116 10.394661 106 102 101
2.863671 -0.912462 8.468551 9 3 3
6.984570 2.601137 10.889474 246 236 235
7.022988 4.238508 10.350492 90 86 83
7.793990 1.114068 11.947378 213 198 203
1.351666 2.065787 9.922469 184 198 198
2.756592 1.276500 9.725425 157 148 151
6.598325 2.149625 10.875940 206 199 206
0.795643 2.564398 8.896605 161 190 204
6.957949 2.930654 10.794963 232 230 235
2.318267 -1.205585 7.907573 7 3 2
2.922989 1.793961 9.679346 235 237 250
4.291008 -3.372764 9.150193 84 83 78
2.365639 -1.164157 8.293078 7 3 2
1.872294 2.430711 8.700946 255 165 116
7.090527 1.307644 11.133604 199 194 191
2.363754 -1.142204 8.277461 6 2 1
2.643986 0.738942 9.937296 149 172 186
7.761609 1.826713 11.873668 167 158 163
6.786718 2.915562 10.750238 158 158 156
2.545046 1.832106 9.635734 229 233 242
1.892553 0.753562 3.575619 236 216 225
6.713701 2.276643 11.063673 183 180 187
6.943974 4.305037 10.420465 77 73 70
7.068338 4.009119 10.321391 128 126 127
2.931232 -2.715591 7.279413 125 124 119
4.980539 -0.318405 9.236865 84 81 76
4.679199 4.117553 6.294152 153 149 146
7.068338 4.009119 10.321391 128 126 127
6.850734 2.020935 10.765272 23 2 7
6.150113 2.120243 10.683163 215 202 211
2.819614 -0.868625 8.434558 116 108 105
2.174493 -0.036155 9.568692 11 9 10
2.188692 2.543005 8.882123 235 240 246
0.975936 -3.552789 8.003783 25 22 17
6.780400 2.238028 10.981491 43 42 48
3.926365 -0.086754 10.254864 137 131 131
7.009936 3.164477 10.824815 194 191 200
4.326435 2.192818 9.329737 172 178 190
0.763306 -4.818831 10.379264 33 30 25
1.792967 -3.486610 8.234011 60 57 52
2.688041 0.074790 9.966779 172 149 131
7.068652 0.871135 11.260142 255 237 229
1.471209 2.951736 16.661546 116 141 146
2.722195 1.426677 3.449723 135 131 130
6.145781 1.207222 10.859262 34 23 27
5.210196 3.850888 8.792266 15 9 9
6.911173 4.343752 10.417302 33 26 20
4.217387 3.905985 6.074444 164 163 159
1.216185 2.621424 8.354687 49 27 40
4.775280 0.017908 9.185238 136 131 127
6.903414 3.140742 10.746742 11 10 16
6.937476 4.080852 10.441660 105 103 104
3.676251 3.480425 7.779204 140 140 142
1.999145 0.140336 9.570872 199 222 180
4.948583 4.330743 8.478713 40 31 26
7.138589 4.283000 10.287003 75 69 71
2.160856 0.472179 2.327178 244 234 235
6.711646 2.040730 10.972544 233 232 237
7.013695 4.639355 10.388231 7 5 6
3.207114 -1.285290 7.128745 199 192 186
4.317887 2.499615 9.097878 163 168 174
7.694923 1.663254 12.048555 243 234 237
2.674126 2.504862 9.584174 221 229 231
3.084891 2.128873 8.085026 251 214 222
4.769797 -3.336676 9.321362 62 59 54
4.434984 4.146301 6.813601 82 69 60
123.190324 2.462006 234.117916 168 163 160
2.747266 2.051495 9.570296 151 136 143
1.729526 2.657233 8.712944 141 48 58
2.824076 -1.630410 7.229139 146 137 132
4.346897 1.752893 9.505553 166 175 184
2.307640 -1.200725 8.262861 4 0 1
1.309530 2.724600 8.338806 47 54 70
1.347349 2.655975 8.327635 130 21 60
6.876886 0.990171 11.533167 220 204 207
6.773146 2.323162 10.978209 112 111 117
2.307640 -1.200725 8.262861 4 0 1
3.993312 3.244813 25.238351 145 171 184
2.239655 0.491619 6.041794 20 17 26
6.623829 2.042390 10.974541 228 223 227
3.592685 0.858029 10.968100 167 149 149
1.339983 2.796017 8.316156 129 147 185
6.614021 2.910784 10.814917 217 218 223
2.906186 -3.488487 7.341209 131 130 125
6.854706 3.163604 10.774482 64 72 74
4.382941 2.798243 8.959830 197 198 202
2.106528 0.417631 2.274846 135 130 126
1.757612 3.506860 7.201869 57 56 61
3.476164 0.526027 11.214315 250 232 230
6.720385 2.977536 9.896046 78 77 85
1.542592 2.872522 8.373525 52 25 18
6.024598 2.190518 10.432525 212 203 208
6.482165 4.069292 9.778170 31 26 22
7.078112 4.560386 10.404809 59 55 54
4.382322 2.559128 9.373653 159 164 170
6.958455 0.328288 10.997376 108 94 91
2.028018 1.917110 9.396734 177 188 192
3.073402 -1.670139 7.204169 149 141 138
4.753143 1.457578 9.015856 49 39 37
1.897190 0.589530 3.458544 254 236 236
6.716909 2.178888 10.967704 208 203 210
2.140646 -0.901643 8.170129 83 74 67
1.372810 2.858588 8.314650 129 137 158
7.028082 4.334274 10.298766 58 53 50
6.550526 3.099483 9.768912 202 192 200
2.064325 3.437517 6.968316 2 11 20
2.215340 2.801641 8.827820 181 195 206
2.595340 0.262344 3.534206 152 131 130
6.784459 1.350837 11.087680 55 46 49
6.730821 2.752196 10.910033 217 218 223
1.380196 0.761401 21.098089 116 135 131
3.889271 3.516149 8.064142 3 2 7
3.039539 2.114452 8.180842 42 29 36
1.838393 3.350378 7.329275 128 126 127
1.182213 2.419567 9.042619 138 161 177
2.608095 4.568653 9.348465 48 46 49
6.076769 2.698454 10.585199 221 220 225
2.862213 -0.823626 8.462039 118 108 106
1.429062 2.673118 8.371309 142 30 76
4.035389 3.010723 8.609018 116 118 115
7.693834 1.044142 12.182932 167 148 150
6.925432 2.133487 11.012935 15 12 19
5.268132 0.999683 9.310204 10 4 6
1.207066 4.083490 6.210453 13 11 12
1.539435 0.769661 20.577241 162 169 151
6.925432 2.133487 11.012935 15 12 19
2.580237 1.208236 9.702131 109 107 112
2.392371 -0.880068 8.275111 108 99 92
3.704553 0.512783 10.731405 96 78 76
2.988826 -3.441121 7.317280 136 135 130
0.959406 1.888688 8.917585 114 142 145
7.927372 0.643103 11.893213 110 92 92
3.353087 2.320016 9.728952 59 42 52
69.093824 38.258804 125.754151 196 208 224
6.799405 3.029742 10.717242 7 5 10
7.066804 4.444907 10.328842 8 8 8
69.093824 38.258804 125.754151 196 208 224
2.087737 1.490316 9.441783 218 223 229
1.254181 2.605280 8.365587 221 185 211
6.960899 0.291371 11.378012 7 6 11
6.598995 4.175761 10.352631 109 104 100
6.925432 2.133487 11.012935 15 12 19
2.601012 0.568104 3.522238 7 5 10
3.757709 2.280356 10.316248 255 251 253
1.586597 2.905295 8.464423 68 31 25
1.257736 2.788968 9.253789 239 237 250
1.383051 2.629239 8.445534 248 187 231
2.908393 1.003152 19.969146 218 241 231
6.886449 1.174495 11.177166 25 21 22
1.224012 7.019205 12.688859 50 41 34
6.725893 1.458545 11.082933 246 246 248
6.375337 0.657277 11.076879 199 174 177
2.908393 1.003152 19.969146 218 241 231
5.558881 3.237889 9.081907 23 21 24
1.397740 2.489331 8.423379 110 36 71
0.765587 0.916095 10.158405 228 238 248
2.039743 2.053050 9.371074 201 206 210
3.328125 3.038482 7.108661 6 6 8
2.661614 1.399109 5.238486 194 197 202
6.886449 1.174495 11.177166 25 21 22
1.446137 2.879297 8.425755 172 181 214
2.421025 2.025190 9.614572 134 147 153
6.169408 1.584765 10.800773 215 203 205
1.933987 6.887796 22.633993 217 235 235
1.295796 2.588467 8.416215 92 87 110
1.539435 0.769661 20.577241 162 169 151
6.960899 0.291371 11.378012 7 6 11
1.240803 0.823759 9.221489 122 141 139
1.455929 2.664219 8.415647 210 183 198
3.046201 2.129255 8.129909 113 106 113
7.679078 0.891159 12.175679 148 137 143
2.107108 0.173193 3.180811 249 223 226
5.054752 0.088304 10.125631 77 72 68
1.595391 0.063333 20.946668 134 161 116
6.169408 1.584765 10.800773 215 203 205
1.760009 2.855053 8.645506 156 94 69
2.688299 2.741412 14.858238 146 159 167
2.232487 -1.479712 8.143413 137 131 119
1.844261 -0.948802 7.950053 10 4 4
6.084756 3.045381 10.087923 12 7 11
1.847583 -1.050600 7.941491 10 4 4
7.727917 2.972947 11.092328 234 238 250
7.649600 1.033756 11.279525 164 159 165
1.829780 -1.106198 7.927660 135 128 122
8.383371 4.145119 10.899952 107 100 94
1.847555 -1.089256 7.945807 6 0 0
7.965961 4.163261 10.835043 122 120 121
7.266839 4.609158 10.066788 8 3 7
4.810581 4.178230 6.330317 149 148 143
8.802796 3.211202 10.987055 14 13 18
7.731180 2.972591 11.110525 228 227 235
3.788321 1.545719 10.198470 248 236 240
1.982099 1.078051 9.368484 173 191 193
8.721286 3.110688 10.980081 112 101 97
7.627151 1.055000 11.106027 180 175 182
7.627151 1.055000 11.106027 180 175 182
3.790913 0.524820 10.336701 122 103 99
2.952653 -3.573243 7.232257 118 118 120
5.869445 1.692787 10.633597 28 30 42
7.723298 2.483376 11.137363 233 230 237
8.918313 4.247247 10.782146 99 92 84
1.206081 2.712079 8.194502 18 16 17
1.828481 -1.144006 7.930743 136 129 123
7.640348 -2.832762 9.592558 55 42 33
1.982099 1.078051 9.368484 173 191 193
3.791510 1.774657 10.176376 255 251 253
2.980097 -2.734900 7.219790 135 134 130
9.096503 4.541813 10.298072 4 2 3
7.872324 3.080260 11.022318 26 23 30
1.940444 1.135243 9.334684 199 212 221
8.996266 3.029627 9.916609 7 0 0
6.756916 2.007279 11.064072 229 224 230
7.688856 0.276676 11.168687 2 3 8
7.716954 2.400147 11.133939 221 218 227
1.962695 2.809143 8.390384 190 119 91
7.755598 2.131434 11.065772 30 24 28
7.582130 0.982194 11.879724 244 234 232
6.078330 2.852678 10.609826 209 204 210
8.940745 3.280540 10.511929 14 9 13
7.731180 2.972591 11.110525 228 227 235
8.996266 3.029627 9.916609 7 0 0
6.107269 2.434024 11.390589 120 129 136
2.503343 1.961285 9.570032 165 179 188
6.189483 4.035665 5.963379 222 224 221
2.752882 1.829958 9.619538 150 148 151
7.896653 0.196157 10.991659 161 141 132
7.671008 2.927589 11.103020 227 217 225
6.756916 2.007279 11.064072 229 224 230
2.321694 4.122317 6.717374 8 6 9
7.671008 2.927589 11.103020 227 217 225
8.910719 3.474571 10.811760 136 122 111
3.851330 2.070402 10.154304 31 24 31
6.918897 1.451217 10.833292 252 246 248
4.964382 4.074828 6.019047 255 255 247
8.876255 4.321298 10.848421 14 10 11
2.719429 1.256948 9.792350 49 45 46
2.533903 0.477285 3.761632 203 226 200
9.643238 4.280107 10.969495 103 88 81
2.954964 -3.436811 7.302302 5 3 4
2.713306 1.655868 9.666412 131 127 124
6.107269 2.434024 11.390589 120 129 136
5.925078 0.580584 10.711050 255 234 235
5.853609 1.815231 10.664578 134 140 152
7.980599 1.484238 10.918792 122 45 51
3.948970 -3.367657 9.018670 76 73 66
3.456596 0.905817 11.315128 179 163 164
6.155973 3.079416 10.020951 207 205 206
9.096503 4.541813 10.298072 4 2 3
1.263229 2.440592 8.244593 158 195 213
8.930790 3.227242 10.340292 116 105 99
8.968987 4.191760 10.648634 117 108 101
7.338396 4.553033 9.843016 76 67 60
8.931586 4.370413 10.739232 67 59 48
7.720639 2.336122 11.569866 245 233 237
1.800012 3.274227 7.603886 103 104 108
9.735180 4.220574 11.046383 66 52 41
6.189483 4.035665 5.963379 222 224 221
7.766775 0.163986 11.023183 68 42 41
8.876255 4.321298 10.848421 14 10 11
2.752882 1.829958 9.619538 150 148 151
4.361512 1.889428 9.130120 224 224 226
4.248604 3.095937 9.404310 179 173 177
2.922284 -1.676625 7.132511 150 146 143
8.814339 3.131272 10.873331 13 4 0
6.078330 2.852678 10.609826 209 204 210
6.981942 3.423091 10.528705 8 6 9
1.267470 -3.472948 7.969050 38 37 32
7.122595 4.043424 10.409561 148 146 149
3.266093 2.518527 8.256699 16 13 24
2.741253 2.112776 10.219523 145 133 133
6.043044 1.266538 10.753256 199 178 187
5.914095 0.577049 10.673026 255 231 229
3.723412 3.509945 7.835974 32 30 31
10.031360 18.823278 20.214210 81 78 73
6.119724 2.895222 10.743418 203 198 202
3.740501 0.917387 10.753231 255 239 229
8.954780 4.658476 10.915213 3 0 0
6.739149 1.593225 10.980602 155 151 152
3.765347 2.134065 10.211454 235 220 223
8.755679 3.305867 10.894581 64 53 49
7.632666 1.278346 11.121301 219 209 210
3.663230 0.811677 10.170653 217 202 199
4.316813 3.038539 4.002642 81 78 73
4.288875 2.962799 3.933417 90 86 83
3.162533 0.429811 2.872334 149 143 145
5.197305 4.049630 5.617248 155 156 158
5.551380 4.041193 5.801601 218 220 215
7.119396 4.838423 10.691841 39 38 36
5.962679 1.643459 10.702499 50 48 53
8.835954 3.010997 10.636960 143 131 119
8.814339 3.131272 10.873331 13 4 0
9.003396 3.376818 10.742217 150 140 138
2.725370 -1.113857 7.053353 6 0 2
7.122595 4.043424 10.409561 148 146 149
6.201418 4.055997 6.370590 152 153 157
3.186932 0.010917 2.164178 159 137 114
2.359162 -1.219944 8.270212 7 3 2
2.719429 1.256948 9.792350 49 45 46
5.698130 3.838868 7.086495 111 97 86
7.546541 -0.057762 10.069243 250 243 227
8.899799 4.408093 10.850653 10 10 8
2.026670 0.114956 9.014565 184 225 147
8.944174 4.479367 10.816271 11 6 2
4.238603 4.127545 6.562381 244 243 238
8.816350 3.879667 11.320680 13 11 14
5.991125 4.054954 5.929581 120 121 126
7.232572 4.615221 10.215084 103 102 100
8.182164 1.435014 10.538088 101 24 32
1.308037 2.429565 8.199201 83 7 53
7.295267 1.613216 10.990198 238 223 230
7.310168 3.179260 10.556871 140 143 158
16.179165 13.176307 23.271620 140 140 142
9.774633 4.251354 11.002831 117 100 90
5.779891 4.200126 7.142896 244 244 242
3.755507 2.092630 10.049674 247 232 235
2.298377 0.444068 9.569004 129 152 144
8.880480 3.169676 10.916758 137 126 124
2.175288 2.706969 6.914248 68 77 94
2.203774 -0.552685 8.269825 137 132 128
2.069909 1.622092 9.393776 121 122 127
6.873481 0.271997 10.894939 148 139 142
6.092335 1.250966 10.803526 200 183 191
2.668451 1.845974 9.729540 244 251 255
4.238603 4.127545 6.562381 244 243 238
3.777321 0.114232 10.414165 83 68 63
4.710826 0.270443 4.196204 40 15 18
7.698369 2.474035 11.953662 246 234 238
5.948836 4.014203 5.934389 120 123 128
7.621862 -2.819780 9.557966 55 42 33
6.734194 1.538045 10.968867 150 141 142
8.782804 0.700650 10.388931 91 61 51
6.428893 2.828481 10.919255 208 205 212
3.044273 -1.634176 7.066282 150 145 142
7.379342 4.592558 10.203222 103 104 108
1.763324 3.451445 7.152771 60 60 62
8.964029 4.558435 10.838405 61 56 52
6.248876 4.143522 6.712544 242 241 237
2.205339 2.647630 6.902612 61 60 76
9.169460 4.525096 10.311470 88 75 66
6.119724 2.895222 10.743418 203 198 202
6.839368 0.353373 10.807214 142 128 125
3.456787 0.987517 3.034020 160 160 160
1.931916 2.754644 8.350677 126 83 74
5.855552 1.890425 10.667480 131 137 149
7.812893 3.182194 10.981895 61 64 73
19.599260 23.066866 34.700615 244 245 247
2.718484 0.344708 2.961342 8 6 7
8.039896 0.517744 10.536212 147 60 53
5.855552 1.890425 10.667480 131 137 149
8.717282 2.266045 10.948417 84 69 64
6.883473 3.180314 10.839875 72 72 80
4.112310 3.029640 9.396477 213 208 214
3.352242 0.277079 2.967577 115 106 111
6.650670 2.863713 10.846052 147 141 151
5.224316 3.946131 8.985496 106 93 84
2.966322 -3.562999 7.330175 14 14 16
1.275676 2.619558 8.191785 106 34 58
3.234027 3.106185 7.157458 5 3 6
1.579633 2.825476 8.324934 206 167 138
8.377095 0.833428 16.502589 163 131 134
1.613289 2.711492 8.725120 255 243 247
6.248876 4.143522 6.712544 242 241 237
7.163022 0.917104 11.198008 235 216 212
5.934880 4.412578 10.425557 119 108 106
3.233877 3.083735 7.116739 5 3 6
6.801574 2.838580 10.800831 172 167 171
7.940098 0.090985 10.911186 85 30 35
5.933794 4.403123 10.340742 57 46 44
6.815139 0.348676 10.743959 137 122 119
1.307872 2.643970 8.187161 155 164 171
2.298377 0.444068 9.569004 129 152 144
0.914716 0.781989 8.674165 42 40 43
6.681446 2.164559 10.887749 224 227 236
4.568261 1.102016 6.673044 227 229 244
7.163876 4.406158 10.320547 12 10 13
3.291445 1.933410 11.668870 246 226 235
8.964029 4.558435 10.838405 61 56 52
1.380638 1.386617 9.331833 166 183 191
3.577968 3.288486 8.026172 120 119 124
8.830071 4.350247 10.875522 16 11 5
7.595371 0.950566 11.848102 173 167 171
2.268621 2.506870 6.904851 82 92 117
6.010343 3.112862 10.013178 115 96 100
8.944174 4.479367 10.816271 11 6 2
6.144406 4.505711 10.582775 72 61 59
3.577968 3.288486 8.026172 120 119 124
3.094900 2.297468 8.648148 125 122 131
5.879127 3.149790 10.586668 102 106 109
8.866146 4.464837 10.780193 9 7 8
8.863551 4.377595 11.004908 89 81 78
1.867680 2.673574 8.664802 137 71 72
6.084561 4.015508 5.937824 192 194 189
1.913711 2.952265 8.452576 113 96 104
3.019198 -3.475653 7.339740 139 138 133
2.974474 -2.693531 7.213903 127 123 120
7.122799 4.417127 10.572487 76 71 68
2.196165 1.163028 9.554263 193 207 218
2.043141 1.068175 9.476784 184 198 209
1.580638 2.790314 8.334830 193 166 137
1.636378 2.986515 8.574818 218 205 215
8.794587 4.386170 10.949872 33 23 21
5.261356 4.108667 6.261766 136 130 130
1.763324 3.451445 7.152771 60 60 62
1.335068 2.783307 7.306368 170 148 160
1.457501 3.753147 6.733417 43 39 38
3.091267 2.338154 8.642814 56 41 46
8.898938 4.317491 9.995363 77 63 52
1.486538 2.588096 8.279083 56 37 41
2.367312 -1.058533 8.134476 3 0 0
0.914716 0.781989 8.674165 42 40 43
3.095054 4.115941 7.180434 55 50 47
6.280863 4.126014 6.379381 248 250 247
7.140026 3.876765 10.919320 10 8 11
8.944174 4.479367 10.816271 11 6 2
7.721650 1.101300 11.014027 47 44 53
3.161337 0.486904 2.864018 151 146 143
7.656615 0.434188 11.257575 89 77 77
6.090124 4.029474 6.039835 240 242 239
3.682923 0.206827 11.014145 87 69 67
1.969452 2.720796 8.374029 216 223 229
1.286345 2.722567 8.214555 43 48 70
1.415726 2.480771 8.798297 197 208 212
8.766725 0.805730 10.465671 88 42 44
4.807233 3.852380 5.606410 233 235 232
2.298377 0.444068 9.569004 129 152 144
1.360907 2.650914 8.210845 191 180 186
3.883430 2.021065 10.127774 60 57 66
0.839931 5.091805 8.612967 56 51 45
6.730573 1.460674 10.966230 65 56 57
3.443322 3.250718 8.075934 1 0 10
1.496714 2.741208 8.475664 182 201 208
3.735317 0.878740 10.748379 255 245 240
7.084477 4.172093 10.525031 118 114 113
8.924285 2.963045 9.825092 142 129 120
3.686190 4.543070 7.616375 109 93 80
3.887439 3.511069 8.061359 4 3 9
3.458827 0.539421 1.984892 135 138 143
6.032827 2.077411 10.602521 17 10 17
4.627022 1.688462 6.051413 15 15 27
7.175593 4.371805 10.109911 54 53 51
1.970352 2.383075 9.191969 195 212 222
1.356172 2.807881 7.529418 13 14 32
1.854215 2.405837 8.690988 192 87 83
1.461824 2.526501 8.299483 71 55 66
3.244361 3.977956 7.220374 73 60 51
4.206526 2.799679 9.265616 160 159 164
3.472609 3.144341 8.159929 12 9 18
7.715051 1.473221 11.379838 255 247 245
3.138925 2.421940 8.634995 124 79 82
3.494350 2.746552 8.429948 10 9 15
7.806168 3.084391 10.728254 136 128 126
6.768839 2.745461 10.914968 113 108 114
7.258361 2.264211 11.330123 244 232 236
4.517715 2.698704 8.294603 252 255 253
2.040474 2.777969 8.401128 127 61 35
4.130108 2.494556 7.309986 40 38 43
3.279582 2.468610 8.317257 158 143 166
3.585556 2.572700 8.408491 53 50 59
2.097893 -0.328418 8.641649 149 137 123
2.482509 2.505003 6.779672 113 114 118
2.506080 0.382336 3.694617 130 151 132
5.689826 3.839375 5.905473 168 172 175
3.397787 4.296006 7.540064 96 80 67
1.838492 2.391951 8.838526 255 228 246
1.493092 2.577849 8.253095 53 33 35
7.965210 1.368568 10.773662 28 0 0
5.991125 4.054954 5.929581 120 121 126
8.887900 3.430231 10.847744 139 130 123
9.721610 4.287863 10.972927 20 9 5
1.357503 2.795923 7.356537 47 51 62
1.382011 2.507458 8.266974 173 179 205
1.433400 2.842757 7.339203 11 11 19
6.050989 0.395184 10.713079 212 184 183
1.259728 0.703512 23.458879 183 206 190
1.674418 2.526935 8.751431 168 66 77
3.216911 2.489561 8.372706 190 168 189
2.035819 2.509387 8.817905 254 132 91
4.016231 3.689425 7.759598 61 57 58
4.537211 0.483409 8.775682 90 81 74
2.263484 2.477757 6.889068 0 1 10
2.002975 2.419631 8.890612 255 199 175
4.375303 2.673095 7.983949 114 112 117
1.943427 2.425706 8.718486 185 84 76
1.346452 2.588930 8.174763 207 94 138
3.140963 0.219045 1.950103 136 123 114
1.483692 0.099399 23.658707 144 169 129
1.483692 0.099399 23.658707 144 169 129
3.472319 3.142923 8.161096 12 9 18
1.418676 2.538190 8.260792 110 107 134
2.329111 0.646532 4.550897 129 148 155
2.749811 1.696903 5.325174 149 127 130
1.420803 2.605926 8.223089 221 104 159
3.432380 0.281980 11.315707 125 111 110
1.843742 3.345869 7.440603 4 2 5
1.869051 2.736096 8.480770 255 252 251
5.948836 4.014203 5.934389 120 123 128
2.509757 2.413269 6.583235 96 96 98
2.684823 0.769638 3.708957 119 122 131
3.026216 2.333659 8.666289 133 115 113
2.866848 1.415690 21.969537 137 162 169
3.155256 2.348637 8.629743 217 128 134
2.887233 0.938252 22.553371 211 240 209
3.504821 0.581406 11.383022 170 155 152
2.951572 0.288869 2.134664 17 15 16
1.935619 3.963660 6.171336 91 83 72
8.319805 0.245526 10.549252 41 32 33
1.686239 2.863339 8.615557 214 180 179
2.893862 0.671943 22.283384 211 239 191
1.759687 2.399473 8.628585 190 83 75
2.787906 0.555747 23.078243 135 162 129
1.678082 2.472191 8.788829 169 47 60
2.049928 1.380371 9.413297 209 216 222
7.117717 4.458154 10.262384 60 55 59
1.973994 2.426981 9.033839 198 120 107
5.506244 2.683440 9.899153 252 255 255
1.962874 1.987121 10.121631 213 220 226
-6.122751 20.387017 51.600838 107 143 155
1.346452 2.588930 8.174763 207 94 138
5.779274 1.096751 10.303780 23 17 21
2.298377 0.444068 9.569004 129 152 144
8.298876 1.208163 10.332862 28 16 16
6.703708 2.814869 10.857430 221 228 234
1.531596 2.783808 6.646195 84 97 114
3.267363 2.257161 8.783104 12 9 16
2.706685 1.416394 4.807838 200 206 220
9.698570 4.552199 10.956705 39 30 25
1.441200 2.643231 8.282715 154 58 96
1.580638 2.790314 8.334830 193 166 137
4.391798 -0.213493 9.319899 74 66 63
6.104248 4.365864 9.875807 65 61 58
5.878560 2.996216 10.173493 211 214 231
7.692423 1.334397 11.327441 206 184 186
3.711229 1.181879 10.247075 245 225 227
4.000092 3.064441 8.243765 141 139 140
3.717758 1.150082 10.028684 247 228 230
3.672630 -3.282462 8.753923 70 67 62
9.268086 1.040964 11.502048 121 108 99
6.941401 1.599568 10.868347 216 205 209
7.622012 3.130099 10.875534 217 220 229
6.771271 1.907715 10.766164 6 3 10
6.892332 1.679880 10.879330 27 10 16
5.702923 1.175612 10.636470 219 201 213
7.562897 1.074788 11.696700 232 216 216
5.225002 2.911169 8.991100 9 8 13
6.817907 1.922457 10.529012 247 232 239
6.604626 2.807572 10.583945 209 212 219
6.633680 3.073121 10.532991 202 206 217
5.976830 2.588609 10.345875 192 191 199
9.191065 1.087221 11.575351 76 19 28
7.681341 2.246768 11.136484 232 230 231
4.719635 0.533955 5.441209 255 244 248
6.647991 0.967359 10.967529 225 198 203
6.883692 2.861528 10.607304 226 224 237
3.754054 1.338822 10.103587 239 219 220
5.702923 1.175612 10.636470 219 201 213
6.847853 4.037917 10.169894 102 96 96
5.258545 1.819030 9.253705 6 0 0
8.114486 0.129240 11.084140 97 36 41
5.994166 1.936751 10.486550 203 193 201
3.666508 0.809952 10.249751 175 160 157
8.782794 0.438289 11.521095 30 18 22
4.353080 2.698607 8.908121 150 151 156
6.686521 2.751297 10.660293 52 41 47
3.803290 0.864634 3.224166 91 82 73
6.633680 3.073121 10.532991 202 206 217
9.181882 4.636461 10.638057 81 77 68
9.001138 4.283229 10.777879 15 11 10
8.896335 3.503790 11.040297 4 2 5
6.758506 3.070868 10.518481 92 92 100
5.655147 3.030140 10.236980 196 205 214
6.877204 3.816634 10.196162 5 4 9
6.936727 3.373288 10.439545 20 15 21
7.723915 3.149611 10.950461 10 12 25
5.974949 0.901003 10.591366 205 184 193
7.723003 3.048027 10.870623 12 11 17
6.539299 1.260095 10.824974 203 182 191
5.974949 0.901003 10.591366 205 184 193
5.241548 4.067121 5.780460 240 245 241
22.836317 5.919951 69.817414 238 218 229
6.757834 1.891355 10.802753 192 186 186
4.429794 3.585891 8.416480 9 7 10
6.142438 1.146687 8.312305 245 233 233
6.822415 0.269284 11.077968 8 9 14
3.774045 0.230453 10.073557 115 100 97
6.721927 3.085925 10.591058 14 12 23
5.726185 3.029548 10.254784 2 1 7
3.505829 0.389638 11.030120 148 134 133
3.363481 1.382587 11.080212 169 156 163
7.148965 0.893823 11.165470 243 228 223
3.895067 -3.280541 8.854306 83 82 77
6.936975 1.352465 10.920639 246 234 238
6.302760 4.068221 9.832925 119 109 108
4.258070 2.968589 9.156484 135 133 134
7.810606 0.325421 11.636168 92 84 82
6.892805 4.482574 9.920840 103 104 109
4.211801 4.193571 6.623157 135 134 132
5.542167 4.130636 9.738521 51 40 38
6.955827 4.756190 10.536731 47 42 39
5.981967 1.335899 10.608502 233 220 229
8.278364 1.533956 11.118080 75 41 42
7.456841 0.813198 14.901511 158 131 136
7.460706 0.812058 14.916096 158 131 136
7.373029 3.370304 11.170585 85 87 99
3.576694 2.466991 8.622487 105 97 121
4.429794 3.585891 8.416480 9 7 10
7.594718 1.447876 11.643256 227 212 217
9.198710 1.092195 11.590293 76 19 28
5.166032 3.051036 9.011503 113 104 95
4.231855 13.802281 41.149645 17 12 19
6.571823 1.679110 10.715595 210 191 193
7.050587 1.955204 11.063495 244 233 239
9.014381 3.317634 11.360757 14 12 15
6.139680 1.250310 10.785572 227 206 213
3.636380 0.813512 10.559514 253 229 229
7.050587 1.955204 11.063495 244 233 239
4.753549 0.026872 9.135151 146 137 132
4.739201 -0.314069 9.168403 92 87 83
8.051088 4.294260 10.626275 56 45 43
3.404130 0.403206 11.105141 243 228 225
7.348759 2.608069 10.949913 192 182 190
6.725988 2.709298 10.612385 171 167 168
3.416440 0.552171 10.973527 255 240 236
5.259551 0.200730 9.436756 187 173 172
5.489736 4.060400 6.156540 127 127 127
6.281837 2.509621 10.461651 197 190 198
6.281837 2.509621 10.461651 197 190 198
6.769265 1.405535 10.926995 169 159 157
6.922351 4.139202 10.008798 77 76 71
5.282742 3.357856 8.844544 20 16 17
7.348759 2.608069 10.949913 192 182 190
4.274260 -0.218965 9.512071 137 131 133
5.663937 2.751676 9.056951 141 129 131
5.832471 2.824476 10.201043 19 18 24
6.327509 0.617318 10.925692 174 134 142
4.151335 3.015203 8.873452 168 166 169
3.954654 3.301713 7.805564 137 135 140
3.308011 1.177605 11.062147 252 233 235
11.069114 5.286564 26.669846 223 220 227
7.458293 0.546721 15.117878 255 240 240
6.039258 1.682907 10.537094 231 224 231
7.437322 0.778675 15.021266 255 225 227
3.462411 0.494431 10.920294 255 240 233
5.794814 2.849675 10.211664 23 22 30
5.767831 3.019450 10.200650 111 114 121
4.036438 3.141929 8.236641 114 113 111
6.251132 4.127591 6.490233 150 155 158
6.921985 0.635767 10.974495 243 223 222
3.997696 2.923458 8.943254 192 200 211
5.468550 0.828670 10.009253 214 196 210
3.949176 3.280849 7.812804 1 0 4
7.489260 0.855847 12.029097 249 234 237
3.970319 2.945845 8.981291 83 97 110
5.289237 4.064224 6.124832 196 197 191
4.016781 2.952602 8.964314 174 165 170
7.520895 0.749363 14.986008 255 240 236
3.347495 0.317503 11.136296 247 232 229
5.616624 0.672938 10.506979 171 150 157
6.766589 0.436477 11.665983 240 215 218
6.631565 2.675779 10.631049 240 239 245
3.449539 2.505616 8.983755 246 237 242
7.586153 0.391855 14.928872 255 237 237
3.363481 1.382587 11.080212 169 156 163
4.284097 2.979540 9.094841 245 244 242
7.000064 4.326371 9.813584 63 59 60
4.727824 0.038300 9.132558 71 61 59
3.287405 1.270566 11.167912 255 252 255
4.132617 3.560391 7.928622 63 60 55
4.159364 4.202054 6.875619 124 121 114
27.831214 9.541791 64.215456 186 180 184
7.790293 0.651261 11.656456 123 105 105
5.261382 2.678193 9.123400 202 218 231
4.132617 3.560391 7.928622 63 60 55
8.734089 2.929792 11.422260 81 66 61
3.910079 4.162925 5.847020 52 49 44
5.454154 0.345351 10.011468 227 200 205
5.249242 1.313679 8.983454 24 19 23
3.967632 3.060639 9.597836 181 178 185
6.124470 0.629146 11.179123 250 218 221
6.766589 0.436477 11.665983 240 215 218
4.421420 3.525524 8.373292 26 22 21
6.058841 4.207046 6.423266 127 130 135
4.120422 4.201342 6.790205 145 146 141
2.654302 140.535694 299.251100 0 0 15
3.633770 8.992081 12.030770 58 54 51
9.246053 0.844181 11.542005 119 116 101
9.442131 4.973904 11.673189 36 31 28
7.519042 0.453695 14.998552 249 225 225
5.397536 0.124993 9.820434 19 17 22
6.048777 1.525469 10.608522 214 203 207
8.099348 0.487726 17.210772 254 234 233
4.291784 2.995795 8.937137 22 18 19
3.910079 4.162925 5.847020 52 49 44
7.458293 0.546721 15.117878 255 240 240
3.318820 1.085732 10.090853 241 239 244
9.845142 1.495174 10.891879 104 25 31
5.746220 2.571027 10.120631 126 133 139
10.550079 0.721832 10.110590 152 135 119
8.132384 1.418691 11.141948 114 46 45
9.884170 0.690619 10.996551 21 3 0
5.746220 2.571027 10.120631 126 133 139
10.013141 1.061781 10.937104 161 139 126
5.892326 4.300781 7.403775 255 255 251
6.900916 2.509449 10.711457 235 232 243
5.398062 0.090293 10.195148 20 14 14
11.081928 0.652205 7.886754 156 149 141
6.261392 4.162393 6.499206 167 170 175
5.375460 1.825985 9.498991 15 13 16
11.001126 0.028357 9.023691 5 1 2
11.081928 0.652205 7.886754 156 149 141
6.872271 -0.369264 6.190996 172 145 124
5.856181 2.960062 10.065155 214 218 229
10.171981 3.692901 9.376076 71 78 88
10.170127 3.032581 8.906004 18 14 13
6.680569 2.178241 10.708486 38 38 38
10.524960 1.424448 9.349503 118 111 103
8.094890 4.141048 7.183827 255 255 253
9.839478 4.161289 10.859661 129 111 97
10.550079 0.721832 10.110590 152 135 119
8.675540 -1.318174 8.844610 184 171 165
10.524960 1.424448 9.349503 118 111 103
11.150678 0.168484 9.388707 146 132 121
8.067921 -3.187932 10.425950 59 49 40
5.305220 4.299649 6.502086 142 142 140
10.928495 0.225956 10.034353 125 112 104
10.250334 4.247475 9.198803 95 93 98
10.161246 0.869453 9.883644 19 10 5
6.692747 1.722831 10.833767 144 138 140
10.093446 2.529095 9.440712 4 2 5
7.091282 1.333374 11.274005 243 237 239
9.831981 0.905617 10.902436 26 6 5
6.960287 1.245268 11.034670 254 245 248
10.423071 1.762022 9.475741 59 54 58
11.010552 0.092118 8.850982 157 143 132
8.094890 4.141048 7.183827 255 255 253
5.770444 1.881715 10.327460 129 138 147
5.770444 1.881715 10.327460 129 138 147
8.401380 4.077411 10.525732 105 92 84
6.708735 1.318083 11.093589 208 197 205
9.957981 0.287134 11.138435 39 20 16
10.400986 1.041041 9.234153 106 104 105
10.794044 0.700577 8.398100 142 132 123
9.846428 4.047696 9.302227 122 111 105
10.548476 2.355539 8.785704 21 20 25
9.874028 4.310221 9.604818 23 13 11
8.584744 -3.150331 8.995648 18 16 17
7.856097 0.629828 11.772922 98 78 79
5.180243 1.597174 7.708876 125 134 141
6.640794 1.248552 11.096947 24 13 19
10.928495 0.225956 10.034353 125 112 104
7.591023 3.110292 10.793673 243 242 248
6.929893 1.976283 10.860205 255 253 255
10.580098 1.943941 9.001649 23 22 27
5.353621 -0.286218 10.103530 155 152 147
5.375460 1.825985 9.498991 15 13 16
5.836459 1.621287 10.533098 19 22 31
10.747150 0.477936 9.335369 136 122 113
8.029507 3.159017 10.508844 135 117 113
10.010074 0.177776 11.140290 121 107 104
8.597548 -3.078669 9.005792 9 5 4
9.047746 4.439930 9.900362 29 16 10
5.934187 3.041688 9.919183 167 148 152
4.191354 0.306119 2.616292 216 204 216
10.686105 1.881824 9.017389 117 117 119
11.709294 7.956925 8.846886 89 88 84
9.838684 4.050910 9.151945 33 25 22
9.951305 0.407806 11.058883 135 118 111
10.451613 1.604193 8.742598 91 82 85
4.014612 -0.318425 3.102573 69 68 63
7.501875 1.546864 12.145510 150 141 146
6.606629 2.650084 10.582414 215 214 222
7.664440 2.924521 11.000892 252 250 255
8.584744 -3.150331 8.995648 18 16 17
5.993016 1.403201 10.669855 219 208 214
8.597548 -3.078669 9.005792 9 5 4
10.686105 1.881824 9.017389 117 117 119
9.047746 4.439930 9.900362 29 16 10
4.632778 1.146212 4.533347 3 7 16
10.224791 0.878427 9.958636 22 17 13
5.520708 0.132662 10.500537 19 17 20
7.714196 1.627754 11.227706 251 244 251
8.337810 4.150183 7.703956 252 253 248
9.878060 4.304540 9.605157 23 13 11
6.064874 4.073465 5.952019 227 229 228
11.150678 0.168484 9.388707 146 132 121
9.769153 0.796829 10.954256 26 11 6
6.237131 4.058143 6.108822 159 164 168
7.664440 2.924521 11.000892 252 250 255
10.540153 1.648454 9.097257 21 19 22
10.423071 1.762022 9.475741 59 54 58
6.835611 1.430158 11.024242 28 18 26
10.046645 0.557482 11.025290 146 127 120
9.905861 3.856891 8.418235 195 202 212
10.916114 0.112073 9.091886 150 136 125
6.607637 0.925580 10.991149 188 163 167
3.941092 0.386781 2.580007 255 244 248
5.664695 1.881200 10.398537 239 238 246
8.758364 3.067614 10.797350 127 110 103
5.919988 2.745985 10.187263 224 228 237
5.588983 2.699542 9.903002 231 241 250
8.491422 3.899013 6.370633 246 245 241
7.332610 0.934956 11.718856 240 225 222
10.592362 2.322549 8.787850 108 107 112
9.846428 4.047696 9.302227 122 111 105
10.889812 0.629138 8.565289 141 128 119
6.470254 4.226018 10.138712 56 46 44
8.582286 4.152165 7.413375 186 190 191
5.900294 4.077848 5.918208 234 235 230
3.943903 0.374921 2.588787 252 246 246
10.487570 2.397315 9.025617 14 18 27
5.442026 1.663879 9.756436 231 222 239
10.192546 3.338471 9.402413 5 3 6
8.619565 -3.022714 8.985552 154 144 132
7.594551 3.270239 10.579415 87 89 104
11.010552 0.092118 8.850982 157 143 132
8.709949 3.458481 5.770914 151 151 151
8.777473 4.107900 7.267828 236 237 232
6.072244 0.313484 11.469529 235 219 219
8.552228 -3.228161 8.955963 149 140 125
10.499955 1.543489 8.466893 109 94 97
8.810765 3.057078 6.104324 75 73 76
9.160401 3.841400 10.689517 133 120 111
5.920879 0.197143 11.250411 7 5 8
10.685093 0.140204 9.991889 3 1 4
6.679895 1.870660 10.919603 212 205 212
10.499955 1.543489 8.466893 109 94 97
5.419783 1.008300 9.862108 14 14 16
9.889659 0.099907 11.085988 61 20 24
6.529704 2.112567 10.690462 208 203 207
10.074971 3.124528 8.859923 116 112 113
6.906304 4.301781 10.063818 9 9 11
6.092307 2.810439 10.417119 230 229 235
8.825074 3.055821 5.744985 76 75 80
6.901937 3.852764 10.260971 7 6 11
7.917800 0.777357 16.123792 255 226 229
6.945287 3.118176 10.706690 204 210 222
6.828846 1.472906 11.008266 24 17 24
9.326340 0.758830 11.755406 127 124 109
7.332610 0.934956 11.718856 240 225 222
6.050665 4.087765 6.056347 140 143 148
5.413627 0.015082 10.138159 145 140 137
10.458096 1.937575 9.289268 147 148 152
8.748774 3.004391 6.118708 3 1 2
7.757196 1.175136 11.232171 23 17 21
8.742388 -0.991811 8.898321 255 239 213
8.838259 4.292513 10.564958 67 58 51
8.475661 3.922429 6.441312 47 40 47
4.678772 0.635463 4.716507 11 9 14
8.745283 -1.289241 8.822077 52 27 22
7.524219 2.457839 11.570423 255 252 255
10.760563 0.629821 8.908713 146 133 124
10.105780 2.676030 9.232112 7 2 6
5.442026 1.663879 9.756436 231 222 239
8.439609 3.933692 6.494730 249 250 245
5.250205 1.658196 9.184012 246 243 252
4.185572 0.349636 2.570600 50 37 47
8.479099 3.747161 6.421328 28 27 33
9.873967 4.153660 8.419769 99 94 88
8.709949 3.458481 5.770914 151 151 151
5.664695 1.881200 10.398537 239 238 246
8.802271 3.115440 5.740392 9 7 8
10.474518 2.419138 9.127751 21 24 33
9.985297 4.127253 10.038701 31 12 6
10.685093 0.140204 9.991889 3 1 4
9.914097 3.847523 8.798918 134 137 146
16.832468 2.449150 15.990187 130 116 107
9.960628 3.495974 8.632620 194 198 207
8.758377 4.083915 7.577560 239 241 238
10.162270 3.607774 9.758957 21 17 18
7.643284 1.967752 11.122656 248 237 241
4.600409 1.772445 3.580907 136 136 136
10.450678 1.504894 8.469210 3 0 2
8.532044 3.791252 6.278591 245 246 241
8.391790 4.130818 7.225483 250 249 245
6.240744 4.148168 6.418507 147 150 155
7.835236 3.097388 10.764338 147 143 142
7.106351 4.176286 10.291965 103 95 92
10.478556 3.604524 8.716107 128 127 125
8.609955 -3.075481 9.083094 161 151 141
10.259665 2.450227 9.153915 3 2 7
5.583875 1.809201 10.082472 234 233 241
5.449972 4.223952 6.357873 238 239 233
8.735357 4.348012 10.648432 54 50 47
10.368989 1.879245 9.358518 3 3 5
9.945917 3.951266 9.884131 130 112 98
10.459158 3.283659 8.794872 68 71 78
9.004701 2.387992 7.901928 168 163 167
7.610005 1.104748 4.990635 126 129 138
8.504400 3.771417 6.402673 32 29 36
8.504400 3.771417 6.402673 32 29 36
10.025500 4.035412 8.656007 87 83 82
10.309519 2.310852 9.236746 6 4 9
8.506160 3.932792 6.406034 255 254 253
10.324467 1.977203 8.546718 115 115 117
6.001272 1.273451 3.452561 120 118 121
10.916319 0.721374 8.703106 43 33 31
9.858384 3.673224 8.766030 168 178 190
8.584744 -3.150331 8.995648 18 16 17
9.006427 4.455605 10.651631 65 56 57
7.919744 3.145998 10.941631 136 131 128
8.743540 3.894946 6.320065 160 164 165
10.165356 2.307019 9.561112 7 2 6
10.098347 3.554368 9.833759 136 124 110
8.773464 3.776507 5.766254 81 82 77
10.450047 3.534550 8.598562 201 201 189
6.906304 4.301781 10.063818 9 9 11
5.253614 4.371475 8.992242 7 0 0
10.149279 2.245180 9.321813 1 0 4
8.541093 3.910608 6.391621 251 252 247
8.516553 -3.174571 9.105956 159 146 138
8.443640 3.961398 6.425108 152 155 160
6.821153 3.056742 10.503684 10 9 17
10.364920 1.184880 9.691162 4 2 5
5.763943 2.967921 10.040436 9 12 17
8.882595 4.160000 7.651582 242 243 245
3.930960 0.286297 2.387508 4 2 3
9.975317 3.469862 8.627418 46 44 45
10.353287 2.141225 9.290447 19 14 18
8.835683 3.713576 5.712087 101 97 94
10.450353 2.689574 8.627877 141 139 142
9.430232 1.635098 17.185197 249 236 243
9.075318 4.329109 10.761734 76 65 61
6.366987 3.016762 9.800766 185 179 179
10.467839 2.418010 9.120828 21 25 34
5.445873 1.228197 9.819619 223 196 211
10.517473 3.271304 8.729241 54 54 62
8.684738 3.283273 6.236534 8 6 9
9.914097 3.847523 8.798918 134 137 146
6.714511 1.268077 11.144799 36 23 30
8.787931 3.706367 5.482017 94 90 89
9.990083 3.474039 9.006365 32 26 28
5.440768 2.060490 9.674392 197 179 191
10.175152 3.371683 8.911060 119 117 122
10.439780 3.207866 8.694200 19 22 29
8.108488 -3.233896 10.463774 154 144 134
9.706345 4.517793 10.763726 45 28 20
8.429988 3.926014 6.485895 249 250 245
5.843898 1.643871 10.487228 64 62 67
10.394579 2.090082 9.127992 179 170 171
9.660530 4.309572 10.920470 40 27 19
9.862709 3.971052 9.226326 127 118 111
5.583875 1.809201 10.082472 234 233 241
10.668023 1.953516 9.473148 162 163 167
9.011146 -3.123042 6.979829 131 127 116
9.595709 2.449624 10.355470 161 144 136
4.779197 0.819106 3.006929 154 144 135
10.525958 1.508309 8.470480 168 159 162
10.470574 1.512968 8.558735 0 0 2
10.115813 3.625154 8.298920 187 190 195
8.758903 3.129720 5.982716 7 7 7
5.375826 2.909837 9.279860 109 132 166
9.004701 2.387992 7.901928 168 163 167
9.551340 3.803840 7.955586 23 17 21
3.977457 0.527336 2.400294 4 5 10
6.145242 1.419671 10.801656 211 196 201
4.843311 0.536757 6.056126 250 223 232
5.114726 1.521820 4.206005 9 0 1
9.862709 3.971052 9.226326 127 118 111
7.579119 0.921399 12.422645 158 143 140
8.507304 4.181054 7.696667 196 196 194
3.913363 0.434408 2.544553 175 169 173
10.273957 2.533316 8.775692 33 28 32
8.565499 3.951725 7.099047 205 207 206
5.396336 0.443831 10.082558 247 225 228
3.945350 0.275310 2.436873 96 81 78
10.074151 3.779748 9.525095 147 148 152
10.074151 3.779748 9.525095 147 148 152
6.573750 2.829597 10.560840 247 246 252
9.740695 -1.082210 11.381458 186 159 138
7.646931 0.842827 16.565601 247 212 216
5.114726 1.521820 4.206005 9 0 1
10.478556 3.604524 8.716107 128 127 125
10.459158 3.283659 8.794872 68 71 78
10.517473 3.271304 8.729241 54 54 62
8.544649 -3.086274 9.040593 143 132 126
3.945578 0.300143 2.618887 120 105 102
6.929695 2.109836 4.460221 86 81 77
10.283209 4.059597 8.495850 133 130 125
6.719362 4.315069 6.536130 237 237 235
4.052735 0.526737 2.530151 249 253 252
6.369847 2.338415 4.970989 251 252 247
7.617268 1.044348 12.067107 180 161 165
4.137896 0.521925 2.481241 78 76 77
8.875044 2.327241 11.127665 159 145 136
5.475367 -0.132443 9.899416 147 143 140
5.113007 1.520390 4.203473 9 0 1
10.050935 3.540708 9.718918 134 125 116
4.785487 0.813947 5.325972 6 2 3
9.213189 3.772190 6.422527 215 216 210
8.927483 -3.112751 6.863061 139 135 124
9.085843 3.760180 7.318271 244 245 240
10.264902 2.233163 8.947290 23 27 28
10.428399 3.283851 8.853104 60 64 73
9.908809 3.872463 8.380303 66 65 71
10.471790 3.205235 8.802926 0 0 5
8.700362 3.106145 6.013241 59 57 60
5.113007 1.520390 4.203473 9 0 1
5.336442 2.361557 9.139139 186 198 210
5.984432 1.703337 9.730069 182 173 178
8.619432 3.296854 6.213092 82 80 83
5.186788 2.762252 8.700991 192 203 225
6.279619 1.659176 9.940542 240 229 235
6.559141 0.996690 4.301159 103 91 91
4.909407 0.482042 3.405205 159 145 136
9.219838 -0.983863 10.600450 187 161 138
4.104743 0.424042 2.238759 87 78 73
4.005165 0.504350 2.420381 216 215 220
8.711547 3.578551 5.737910 138 146 149
5.978271 0.430340 10.746828 198 182 192
10.428842 3.302730 8.968893 62 65 74
6.144907 1.464533 10.806114 221 206 213
6.199923 0.806475 14.373265 5 3 6
9.065743 3.640724 6.484843 18 13 17
8.759830 3.511536 5.651932 15 15 15
7.527160 0.625284 16.516470 255 238 234
8.644556 3.206759 6.559353 127 128 130
5.594663 1.421968 7.566467 140 123 129
5.843898 1.643871 10.487228 64 62 67
8.711547 3.578551 5.737910 138 146 149
10.536519 1.769143 8.553888 2 0 5
6.802949 2.031314 10.153032 255 246 252
9.038747 3.833301 6.597673 241 243 242
4.197978 0.257726 2.791463 255 246 253
11.012940 1.015691 8.993968 18 14 15
17.837007 8.871888 15.576167 92 92 94
3.933651 0.543359 2.653878 207 217 229
10.418725 3.740004 7.641447 15 13 14
9.654631 -0.688963 12.653875 208 178 154
11.591108 1.536137 7.928881 169 165 162
11.303571 0.005631 8.180278 149 140 131
9.881282 1.400432 10.789508 163 140 126
9.225303 3.092996 10.234040 147 134 128
7.823737 -0.515600 7.425958 183 156 135
15.324895 1.054634 10.273671 159 151 149
11.098906 3.585921 5.896669 7 7 7
14.322583 1.890850 9.480958 157 153 150
10.467061 2.360177 9.167698 166 175 180
7.964332 -0.751332 7.631766 140 123 103
212.074826 -67.873762 302.022587 166 143 125
11.444767 0.923470 8.236153 115 110 107
7.099270 0.947400 4.535572 164 161 156
9.084021 3.842360 5.720780 139 139 137
12.359170 0.548844 7.554372 153 143 141
9.238602 3.922793 6.678493 97 93 94
12.347916 0.550248 7.546023 172 162 161
8.975538 4.159977 7.676200 247 248 253
12.030387 -0.276018 7.425857 12 10 11
9.974879 1.430872 10.953483 163 140 126
11.098906 3.585921 5.896669 7 7 7
9.655531 3.886896 6.088922 13 11 12
11.899184 0.612119 8.231699 155 148 142
13.333351 2.840305 8.640517 158 165 173
9.867005 3.728757 5.803051 108 106 107
10.163303 0.862630 9.895942 21 7 6
10.248168 3.356824 8.142294 221 214 208
10.172087 3.950266 8.355284 119 117 120
10.511008 1.946304 9.463178 2 2 4
9.966874 3.740470 5.721681 99 95 92
13.285555 2.834433 8.594215 164 172 175
9.259771 3.095777 5.972254 72 72 74
11.303571 0.005631 8.180278 149 140 131
11.899184 0.612119 8.231699 155 148 142
10.220036 2.622709 9.139121 53 51 56
12.169314 0.656121 7.410644 16 14 15
9.786103 3.548768 9.576656 21 10 6
12.912659 2.961812 7.600474 186 184 189
9.031234 3.826228 5.883242 113 112 110
10.275667 3.221063 5.987614 4 2 5
7.204954 2.150980 7.331855 149 136 127
8.315341 4.371827 7.811476 255 255 253
9.559335 3.647226 5.993912 25 24 29
10.468017 2.117086 9.104212 16 11 8
10.589018 2.407271 9.022877 11 12 17
9.707908 3.775683 5.857323 146 144 145
9.018885 3.296541 6.182171 13 11 14
9.818908 3.569491 5.945500 165 166 168
10.178004 3.859912 8.155843 187 187 187
14.518010 1.923573 9.443439 105 97 94
4.864183 0.468046 3.028277 0 2 1
9.880250 1.202186 10.933831 81 27 27
7.404666 1.051542 5.598137 29 20 21
11.199117 3.128735 6.246618 90 85 82
9.858473 3.706409 5.735168 7 7 9
11.102589 3.028169 6.295919 179 178 173
8.253924 3.076649 5.392824 10 8 11
9.942023 3.507908 8.678708 192 201 210
11.347933 0.683096 9.122782 161 147 138
23.670326 2.829865 19.690134 151 139 125
9.419447 3.317000 10.800675 91 82 75
8.791870 4.050267 6.450179 154 158 161
11.994925 2.459261 7.079135 14 14 16
10.486384 1.992936 9.164202 23 21 24
10.373682 2.094813 9.170258 11 5 7
9.577372 3.780984 5.963616 157 155 156
5.418456 0.895142 2.928026 202 202 202
11.647439 0.634894 8.386046 151 144 136
11.199117 3.128735 6.246618 90 85 82
12.419766 0.768261 7.562135 135 125 126
8.713710 4.030054 6.718404 254 253 251
11.073981 3.029582 6.288076 178 177 172
8.893601 4.375551 10.756584 64 60 59
8.315341 4.371827 7.811476 255 255 253
10.597437 2.393985 8.929172 22 21 26
9.818908 3.569491 5.945500 165 166 168
8.019775 4.193985 6.862433 99 104 107
9.966542 3.535550 9.010090 172 197 217
9.098150 3.574346 5.882660 154 162 164
9.696991 4.175361 8.050366 253 252 250
8.908206 3.869048 5.689402 117 118 120
10.139432 3.372718 6.106077 144 145 140
14.340258 2.470822 9.377813 154 159 162
11.100071 3.580216 5.845531 4 3 1
